  -10.000000  -10.000000  -10.000000  -10.000000  -10.000000  -10.000000  -10.000000  -10.000000  -10.000000  -10.000000  -10.000000  -10.000000  -10.000000  -10.000000  -10.000000  -10.000000  -10.000000  -10.000000  -10.000000  -10.000000  -10.000000  -10.000000  -10.000000  -10.000000  -10.000000  -10.000000  -10.000000  -10.000000  -10.000000  -10.000000  -10.000000  -10.000000  -10.000000  -10.000000  -10.000000  -10.000000  -10.000000  -10.000000  -10.000000  -10.000000  -10.000000  -10.000000  -10.000000  -10.000000  -10.000000  -10.000000  -10.000000  -10.000000  -10.000000  -10.000000  -10.000000
  -10.000000    1.000000    1.000000    1.000000    1.000000    1.000000    1.000000    1.000000    1.000000    1.000000    1.000000    1.000000    1.000000    1.000000    1.000000    1.000000    1.000000    1.000000    1.000000    1.000000    1.000000    1.000000    1.000000    1.000000    1.000000    1.000000    1.000000    1.000000    1.000000    1.000000    1.000000    1.000000    1.000000    1.000000    1.000000    1.000000    1.000000    1.000000    1.000000    1.000000    1.000000    1.000000    1.000000    1.000000    1.000000    1.000000    1.000000    1.000000    1.000000    1.000000  -10.000000
  -10.000000    1.000000    1.300202    1.592961    1.871388    2.129629    2.363230    2.569332    2.746700    2.895599    3.017545    3.114988    3.190961    3.248763    3.291674    3.322754    3.344704    3.359799    3.369877    3.376362    3.380320    3.382518    3.383484    3.383571    3.382999    3.381893    3.380306    3.378227    3.375579    3.372193    3.367778    3.361869    3.353766    3.342465    3.326586    3.304318    3.273387    3.231068    3.174251    3.099585    3.003688    2.883435    2.736295    2.560678    2.356263    2.124249    1.867481    1.590425    1.298956    1.000000  -10.000000
  -10.000000    1.000000    1.592961    2.171221    2.721171    3.231250    3.692659    4.099750    4.450086    4.744189    4.985054    5.177517    5.327574    5.441734    5.526479    5.587849    5.631177    5.660954    5.680803    5.693536    5.701251    5.705452    5.707183    5.707131    5.705729    5.703224    5.699723    5.695212    5.689548    5.682418    5.673265    5.661198    5.644855    5.622272    5.590744    5.546707    5.485671    5.402249    5.290289    5.143153    4.954141    4.717060    4.426884    4.080456    3.677126    3.219256    2.712465    2.165569    1.590183    1.000000  -10.000000
  -10.000000    1.000000    1.871388    2.721171    3.529349    4.278934    4.956995    5.555232    6.070063    6.502254    6.856207    7.139029    7.359526    7.527265    7.651768    7.741905    7.805506    7.849160    7.878182    7.896690    7.907751    7.913561    7.915634    7.914968    7.912189    7.907660    7.901543    7.893839    7.884370    7.872720    7.858128    7.839339    7.814423    7.780550    7.733787    7.668928    7.579389    7.457241    7.293413    7.078104    6.801413    6.454179    6.028958    5.521059    4.929492    4.257703    3.513941    2.711168    1.866472    1.000000  -10.000000
  -10.000000    1.000000    2.129630    3.231250    4.278935    5.250661    6.129663    6.905181    7.572573    8.132832    8.591661    8.958273    9.244082    9.461484    9.622815    9.739566    9.821868    9.878252    9.915580    9.939161    9.952943    9.959737    9.961477    9.959422    9.954369    9.946778    9.936882    9.924716    9.910117    9.892634    9.871394    9.844899    9.810769    9.765455    9.703958    9.619585    9.503825    9.346382    9.135431    8.858175    8.501664    8.053898    7.505108    6.849113    6.084555    5.215851    4.253680    3.214859    2.121576    1.000000  -10.000000
  -10.000000    1.000000    2.363231    3.692660    4.956997    6.129664    7.190429    8.126306    8.931691    9.607784   10.161468   10.603850   10.948706   11.210983   11.405559   11.546279   11.645347   11.713024   11.757550   11.785284   11.800932   11.807828   11.808244   11.803654   11.794980   11.782768   11.767326   11.748767   11.727006   11.701662   11.671881   11.636080   11.591619   11.534426   11.458640   11.356298   11.217166   11.028779   10.776760   10.445494   10.019146    9.483017    8.825108    8.037768    7.119231    6.074746    4.917168    3.666817    2.350536    1.000000  -10.000000
  -10.000000    1.000000    2.569333    4.099753    5.555236    6.905187    8.126311    9.203660   10.130785   10.909060   11.546407   12.055609   12.452515   12.754317   12.978120   13.139834   13.253470   13.330781   13.381191   13.411939   13.428346   13.434155   13.431881   13.423139   13.408926   13.389858   13.366325   13.338568   13.306678   13.270488   13.229338   13.181787   13.125174   13.055172   12.965322   12.846641   12.687415   12.473227   12.187344   11.811503   11.327135   10.716944    9.966765    9.067501    8.016886    6.820826    5.494083    4.060088    2.549853    1.000000  -10.000000
  -10.000000    1.000000    2.746704    4.450093    6.070073    7.572587    8.931707   10.130798   11.162674   12.028866   12.738181   13.304851   13.746483   14.082206   14.331019   14.510584   14.636433   14.721566   14.776368   14.808770   14.824552   14.827724   14.820932   14.805837   14.783451   14.754429   14.719257   14.678377   14.632178   14.580889   14.524307   14.461408   14.389844   14.305370   14.201257   14.067798   13.892061   13.657897   13.346382   12.936738   12.407742   11.739558   10.915867    9.926073    8.767303    7.445927    5.978310    4.390603    2.717493    1.000000  -10.000000
  -10.000000    1.000000    2.895605    4.744202    6.502275    8.132862    9.607824   10.909103   12.028901   12.968877   13.738580   14.353430   14.832528   15.196597   15.466207   15.660458   15.796112   15.887157   15.944708   15.977186   15.990646   15.989212   15.975519   15.951163   15.917090   15.873951   15.822351   15.763005   15.696774   15.624523   15.546824   15.463470   15.372847   15.271220   15.151995   15.005101   14.816654   14.568965   14.241031   13.809607   13.250809   12.542215   11.665271   10.607762    9.366053    7.946753    6.367538    4.656898    2.852753    1.000000  -10.000000
  -10.000000    1.000000    3.017557    4.985079    6.856249    8.591723   10.161552   11.546513   12.738298   13.738672   14.557781   15.212025   15.721703   16.108816   16.395191   16.601065   16.744141   16.839134   16.897655   16.928402   16.937506   16.929024   16.905416   16.868067   16.817753   16.755064   16.680738   16.595863   16.501965   16.400866   16.294333   16.183479   16.067993   15.945197   15.809135   15.649783   15.452589   15.198466   14.864365   14.424493   13.852153   13.122144   12.213471   11.112099    9.813404    8.323998    6.662588    4.859675    2.956029    1.000000  -10.000000
  -10.000000    1.000000    3.115009    5.177563    7.139105    8.958391   10.604020   12.055836   13.305130   14.353730   15.212266   15.897897   16.431864   16.837170   17.136597   17.351221   17.499428   17.596399   17.654003   17.680983   17.683342   17.664852   17.627609   17.572617   17.500332   17.411209   17.306112   17.186602   17.055115   16.914825   16.769226   16.621422   16.473122   16.323439   16.167694   15.996382   15.794570   15.541866   15.213071   14.779583   14.211547   13.480603   12.562950   11.442397   10.113062    8.581303    6.866612    5.001248    3.028543    1.000000  -10.000000
  -10.000000    1.000000    3.190998    5.327654    7.359664    9.244298   10.949022   12.452954   13.747063   14.833228   15.722440   16.432436   16.985167   17.404369   17.713530   17.934296   18.085476   18.182476   18.237181   18.258152   18.251022   18.219046   18.163733   18.085474   17.984243   17.860216   17.714344   17.548786   17.367147   17.174412   16.976479   16.779312   16.587595   16.403202   16.223541   16.040197   15.838150   15.595702   15.285227   14.874824   14.330873   13.621208   12.718656   11.604421   10.271014    8.724290    6.984341    5.085020    3.072075    1.000000  -10.000000
  -10.000000    1.000000    3.248826    5.441873    7.527505    9.461864   11.211551   12.755127   14.083308   15.198010   16.110487   16.838892   17.405678   17.835108   18.151121   18.375710   18.527874   18.623001   18.672768   18.685305   18.665630   18.616219   18.537720   18.429653   18.291254   18.122246   17.923578   17.698053   17.450729   17.188929   16.921801   16.659245   16.410240   16.180712   15.971238   15.775187   15.577712   15.355699   15.078606   14.710430   14.212779   13.548738   12.686950   11.605425   10.294680    8.759851    7.021523    5.115112    3.088773    1.000000  -10.000000
  -10.000000    1.000000    3.291780    5.526713    7.652174    9.623461   11.406535   12.979535   14.332994   15.468835   16.398493   17.140409   17.717379   18.153984   18.474422   18.700832   18.852171   18.943615   18.986391   18.987967   18.952467   18.881319   18.773972   18.628778   18.443905   18.218351   17.952887   17.650925   17.319189   16.967916   16.610466   16.262115   15.937903   15.649621   15.402493   15.192467   15.005079   14.815552   14.589689   14.286102   13.860133   13.268716   12.475237   11.453812   10.192578    8.695823    6.984647    5.096140    3.081032    1.000000  -10.000000
  -10.000000    1.000000    3.322927    5.588231    7.742568    9.740627   11.547899   13.142216   14.513964   15.665071   16.607073   17.358604   17.942650   18.383961   18.706841   18.933367   19.082296   19.168377   19.202181   19.190264   19.135605   19.038244   18.896111   18.705990   18.464588   18.169781   17.821815   17.424549   16.986435   16.521099   16.047224   15.587255   15.164736   14.800045   14.505193   14.279479   14.108819   13.966426   13.813491   13.601243   13.276438   12.787901   12.092422   11.159473    9.974552    8.541109    6.880979    5.033228    3.051498    1.000000  -10.000000
  -10.000000    1.000000    3.344978    5.631782    7.806561    9.823566   11.647959   13.257343   14.641997   15.803838   16.754459   17.512587   18.101303   18.545404   18.869127   19.094385   19.239552   19.318785   19.341805   19.314024   19.237005   19.109097   18.926329   18.683470   18.375282   17.997969   17.550722   17.037359   16.467833   15.859425   15.237146   14.632804   14.081926   13.617831   13.262842   13.019760   12.874120   12.796973   12.744149   12.656113   12.467328   12.115800   11.550223   10.734844    9.652514    8.306190    6.718894    4.932190    3.003145    1.000000  -10.000000
  -10.000000    1.000000    3.360222    5.661889    7.850797    9.880894   11.717107   13.336884   14.730419   15.899601   16.856047   17.618511   18.210087   18.655512   18.978876   19.201782   19.342112   19.413284   19.424000   19.378338   19.276190   19.113909   18.885250   18.582483   18.197855   17.725178   17.161768   16.510527   15.782140   14.997180   14.187614   13.396935   12.677529   12.083219   11.654024   11.393220   11.282966   11.293266   11.376048   11.454090   11.443245   11.267216   10.865303   10.196512    9.241635    8.003914    6.508380    4.799827    2.939409    1.000000  -10.000000
  -10.000000    1.000000    3.370513    5.682215    7.880660    9.919588   11.763769   13.390536   14.790020   15.964079   16.924320   17.689478   18.282598   18.728296   19.050432   19.270220   19.404951   19.467205   19.464537   19.399540   19.270229   19.070709   18.792097   18.423723   17.954636   17.375420   16.680374   15.870069   14.954294   13.955415   12.911759   11.880158   10.935827   10.166596    9.651505    9.377683    9.314492    9.436951    9.705340   10.005434   10.223622   10.265857   10.062033    9.567194    8.761642    7.650358    6.261562    4.644222    2.864329    1.000000  -10.000000
  -10.000000    1.000000    3.377299    5.695616    7.900344    9.945092   11.794511   13.425864   14.829225   16.006422   16.969028   17.735733   18.329491   18.774757   19.095102   19.311314   19.440039   19.492956   19.476408   19.391403   19.233967   18.995766   18.665010   18.227674   17.669001   16.975405   16.136759   15.149258   14.019010   12.766810   11.434191   10.090151    8.836534    7.814132    7.221559    6.954751    6.946250    7.195926    7.732661    8.334052    8.843139    9.148957    9.175548    8.877614    8.237944    7.265441    5.993042    4.474922    2.782615    1.000000  -10.000000
  -10.000000    1.000000    3.381666    5.704239    7.913010    9.961493   11.814274   13.448556   14.854372   16.033516   16.997517   17.765001   18.358820   18.803234   19.121515   19.334005   19.456701   19.500374   19.470144   19.365442   19.180273   18.903795   18.521196   18.014824   17.365646   16.555050   15.566997   14.390776   13.024759   11.482163    9.800310    8.053447    6.361489    4.895853    4.330289    4.130802    4.162052    4.485047    5.474868    6.491469    7.360826    7.972470    8.254396    8.167676    7.702014    6.872977    5.719821    4.302835    2.699591    1.000000  -10.000000
  -10.000000    1.000000    3.384406    5.709647    7.920951    9.971776   11.826653   13.462752   14.870071   16.050373   17.015142   17.782940   18.376486   18.819866   19.136066   19.344997   19.462036   19.497107   19.454187   19.331196   19.120234   18.808054   18.376879   17.805424   17.070211   16.147095   15.012961   13.647756   12.037192   10.177862    8.089394    5.840918    3.561985    1.000000    1.000000    1.000000    1.000000    1.000000    3.034241    4.584569    5.870566    6.815008    7.361422    7.485984    7.190503    6.499800    5.460618    4.139789    2.620981    1.000000  -10.000000
  -10.000000    1.000000    3.386071    5.712934    7.925776    9.978019   11.834163   13.471353   14.879559   16.060516   17.025669   17.793512   18.386656   18.829025   19.143349   19.349163   19.461313   19.488979   19.435144   19.296427   19.063231   18.720201   18.246901   17.618738   16.808067   15.785378   14.520306   12.982266   11.140285    8.962628    6.424329    3.576995    1.000000   -0.200000   -0.200000   -0.200000   -0.200000   -0.200000    1.000000    2.792037    4.501715    5.776710    6.570882    6.886647    6.742531    6.173759    5.234500    3.997689    2.552505    1.000000  -10.000000
  -10.000000    1.000000    3.387033    5.714834    7.928565    9.981624   11.838495   13.476305   14.885005   16.066309   17.031631   17.799404   18.392164   18.833698   19.146536   19.349932   19.458303   19.480267   19.418028   19.267193   19.016850   18.649975   18.144035   17.471798   16.602283   15.501637   14.133661   12.459185   10.432256    7.986130    4.981603    1.000000   -0.200000   -0.200000   -0.200000   -0.200000   -0.200000   -0.200000   -0.200000    1.000000    3.395320    4.972599    5.960322    6.422502    6.394981    5.920649    5.058961    3.887398    2.499366    1.000000  -10.000000
  -10.000000    1.000000    3.387526    5.715807    7.929992    9.983468   11.840710   13.478833   14.887778   16.069244   17.034626   17.802322   18.394810   18.835796   19.147686   19.349546   19.455532   19.473898   19.406361   19.247877   18.986704   18.604755   18.078154   17.377977   16.471149   15.321204   13.888896   12.132215   10.005840    7.460961    4.452895    1.000000   -0.200000   -0.200000   -0.200000   -0.200000   -0.200000   -0.200000   -0.200000    1.000000    2.978557    4.538757    5.594468    6.134338    6.176421    5.760724    4.947859    3.817553    2.465709    1.000000  -10.000000
  -10.000000    1.000000    3.387676    5.716105    7.930429    9.984032   11.841388   13.479606   14.888625   16.070139   17.035532   17.803196   18.395586   18.836384   19.147951   19.349281   19.454451   19.471586   19.402237   19.241140   18.976263   18.589159   18.055483   17.345743   16.426147   15.259399   13.805414   12.021914    9.865898    7.299777    4.314477    1.000000   -0.200000   -0.200000   -0.200000   -0.200000   -0.200000   -0.200000   -0.200000    1.000000    2.867607    4.404884    5.474411    6.037343    6.102090    5.706107    4.909855    3.793647    2.454187    1.000000  -10.000000
  -10.000000    1.000000    3.387526    5.715807    7.929992    9.983468   11.840710   13.478833   14.887778   16.069244   17.034626   17.802322   18.394810   18.835796   19.147686   19.349546   19.455532   19.473898   19.406361   19.247877   18.986704   18.604755   18.078154   17.377977   16.471149   15.321204   13.888896   12.132215   10.005840    7.460961    4.452895    1.000000   -0.200000   -0.200000   -0.200000   -0.200000   -0.200000   -0.200000   -0.200000    1.000000    2.978557    4.538757    5.594468    6.134338    6.176421    5.760724    4.947859    3.817553    2.465709    1.000000  -10.000000
  -10.000000    1.000000    3.387033    5.714834    7.928565    9.981624   11.838495   13.476305   14.885005   16.066309   17.031631   17.799404   18.392164   18.833698   19.146536   19.349932   19.458303   19.480267   19.418028   19.267193   19.016850   18.649975   18.144035   17.471798   16.602283   15.501637   14.133661   12.459185   10.432256    7.986130    4.981603    1.000000   -0.200000   -0.200000   -0.200000   -0.200000   -0.200000   -0.200000   -0.200000    1.000000    3.395320    4.972599    5.960322    6.422502    6.394981    5.920649    5.058961    3.887398    2.499366    1.000000  -10.000000
  -10.000000    1.000000    3.386071    5.712934    7.925776    9.978019   11.834163   13.471353   14.879559   16.060516   17.025669   17.793512   18.386656   18.829025   19.143349   19.349163   19.461313   19.488979   19.435144   19.296427   19.063231   18.720201   18.246901   17.618738   16.808067   15.785378   14.520306   12.982266   11.140285    8.962628    6.424329    3.576995    1.000000   -0.200000   -0.200000   -0.200000   -0.200000   -0.200000    1.000000    2.792037    4.501715    5.776710    6.570882    6.886647    6.742531    6.173759    5.234500    3.997689    2.552505    1.000000  -10.000000
  -10.000000    1.000000    3.384406    5.709647    7.920951    9.971776   11.826653   13.462752   14.870071   16.050373   17.015142   17.782940   18.376486   18.819866   19.136066   19.344997   19.462036   19.497107   19.454187   19.331196   19.120234   18.808054   18.376879   17.805424   17.070211   16.147095   15.012961   13.647756   12.037192   10.177862    8.089394    5.840918    3.561985    1.000000    1.000000    1.000000    1.000000    1.000000    3.034241    4.584569    5.870566    6.815008    7.361422    7.485984    7.190503    6.499800    5.460618    4.139789    2.620981    1.000000  -10.000000
  -10.000000    1.000000    3.381666    5.704239    7.913010    9.961493   11.814274   13.448556   14.854372   16.033516   16.997517   17.765001   18.358820   18.803234   19.121515   19.334005   19.456701   19.500374   19.470144   19.365442   19.180273   18.903795   18.521196   18.014824   17.365646   16.555050   15.566997   14.390776   13.024759   11.482163    9.800310    8.053447    6.361489    4.895853    4.330289    4.130802    4.162052    4.485047    5.474868    6.491469    7.360826    7.972470    8.254396    8.167676    7.702014    6.872977    5.719821    4.302835    2.699591    1.000000  -10.000000
  -10.000000    1.000000    3.377299    5.695616    7.900344    9.945092   11.794511   13.425864   14.829225   16.006422   16.969028   17.735733   18.329491   18.774757   19.095102   19.311314   19.440039   19.492956   19.476408   19.391403   19.233967   18.995766   18.665010   18.227674   17.669001   16.975405   16.136759   15.149258   14.019010   12.766810   11.434191   10.090151    8.836534    7.814132    7.221559    6.954751    6.946250    7.195926    7.732661    8.334052    8.843139    9.148957    9.175548    8.877614    8.237944    7.265441    5.993042    4.474922    2.782615    1.000000  -10.000000
  -10.000000    1.000000    3.370513    5.682215    7.880660    9.919588   11.763769   13.390536   14.790020   15.964079   16.924320   17.689478   18.282598   18.728296   19.050432   19.270220   19.404951   19.467205   19.464537   19.399540   19.270229   19.070709   18.792097   18.423723   17.954636   17.375420   16.680374   15.870069   14.954294   13.955415   12.911759   11.880158   10.935827   10.166596    9.651505    9.377683    9.314492    9.436951    9.705340   10.005434   10.223622   10.265857   10.062033    9.567194    8.761642    7.650358    6.261562    4.644222    2.864329    1.000000  -10.000000
  -10.000000    1.000000    3.360222    5.661889    7.850797    9.880894   11.717107   13.336884   14.730419   15.899601   16.856047   17.618511   18.210087   18.655512   18.978876   19.201782   19.342112   19.413284   19.424000   19.378338   19.276190   19.113909   18.885250   18.582483   18.197855   17.725178   17.161768   16.510527   15.782140   14.997180   14.187614   13.396935   12.677529   12.083219   11.654024   11.393220   11.282966   11.293266   11.376048   11.454090   11.443245   11.267216   10.865303   10.196512    9.241635    8.003914    6.508380    4.799827    2.939409    1.000000  -10.000000
  -10.000000    1.000000    3.344978    5.631782    7.806561    9.823566   11.647959   13.257343   14.641997   15.803838   16.754459   17.512587   18.101303   18.545404   18.869127   19.094385   19.239552   19.318785   19.341805   19.314024   19.237005   19.109097   18.926329   18.683470   18.375282   17.997969   17.550722   17.037359   16.467833   15.859425   15.237146   14.632804   14.081926   13.617831   13.262842   13.019760   12.874120   12.796973   12.744149   12.656113   12.467328   12.115800   11.550223   10.734844    9.652514    8.306190    6.718894    4.932190    3.003145    1.000000  -10.000000
  -10.000000    1.000000    3.322927    5.588231    7.742568    9.740627   11.547899   13.142216   14.513964   15.665071   16.607073   17.358604   17.942650   18.383961   18.706841   18.933367   19.082296   19.168377   19.202181   19.190264   19.135605   19.038244   18.896111   18.705990   18.464588   18.169781   17.821815   17.424549   16.986435   16.521099   16.047224   15.587255   15.164736   14.800045   14.505193   14.279479   14.108819   13.966426   13.813491   13.601243   13.276438   12.787901   12.092422   11.159473    9.974552    8.541109    6.880979    5.033228    3.051498    1.000000  -10.000000
  -10.000000    1.000000    3.291780    5.526713    7.652174    9.623461   11.406535   12.979535   14.332994   15.468835   16.398493   17.140409   17.717379   18.153984   18.474422   18.700832   18.852171   18.943615   18.986391   18.987967   18.952467   18.881319   18.773972   18.628778   18.443905   18.218351   17.952887   17.650925   17.319189   16.967916   16.610466   16.262115   15.937903   15.649621   15.402493   15.192467   15.005079   14.815552   14.589689   14.286102   13.860133   13.268716   12.475237   11.453812   10.192578    8.695823    6.984647    5.096140    3.081032    1.000000  -10.000000
  -10.000000    1.000000    3.248826    5.441873    7.527505    9.461864   11.211551   12.755127   14.083308   15.198010   16.110487   16.838892   17.405678   17.835108   18.151121   18.375710   18.527874   18.623001   18.672768   18.685305   18.665630   18.616219   18.537720   18.429653   18.291254   18.122246   17.923578   17.698053   17.450729   17.188929   16.921801   16.659245   16.410240   16.180712   15.971238   15.775187   15.577712   15.355699   15.078606   14.710430   14.212779   13.548738   12.686950   11.605425   10.294680    8.759851    7.021523    5.115112    3.088773    1.000000  -10.000000
  -10.000000    1.000000    3.190998    5.327654    7.359664    9.244298   10.949022   12.452954   13.747063   14.833228   15.722440   16.432436   16.985167   17.404369   17.713530   17.934296   18.085476   18.182476   18.237181   18.258152   18.251022   18.219046   18.163733   18.085474   17.984243   17.860216   17.714344   17.548786   17.367147   17.174412   16.976479   16.779312   16.587595   16.403202   16.223541   16.040197   15.838150   15.595702   15.285227   14.874824   14.330873   13.621208   12.718656   11.604421   10.271014    8.724290    6.984341    5.085020    3.072075    1.000000  -10.000000
  -10.000000    1.000000    3.115009    5.177563    7.139105    8.958391   10.604020   12.055836   13.305130   14.353730   15.212266   15.897897   16.431864   16.837170   17.136597   17.351221   17.499428   17.596399   17.654003   17.680983   17.683342   17.664852   17.627609   17.572617   17.500332   17.411209   17.306112   17.186602   17.055115   16.914825   16.769226   16.621422   16.473122   16.323439   16.167694   15.996382   15.794570   15.541866   15.213071   14.779583   14.211547   13.480603   12.562950   11.442397   10.113062    8.581303    6.866612    5.001248    3.028543    1.000000  -10.000000
  -10.000000    1.000000    3.017557    4.985079    6.856249    8.591723   10.161552   11.546513   12.738298   13.738672   14.557781   15.212025   15.721703   16.108816   16.395191   16.601065   16.744141   16.839134   16.897655   16.928402   16.937506   16.929024   16.905416   16.868067   16.817753   16.755064   16.680738   16.595863   16.501965   16.400866   16.294333   16.183479   16.067993   15.945197   15.809135   15.649783   15.452589   15.198466   14.864365   14.424493   13.852153   13.122144   12.213471   11.112099    9.813404    8.323998    6.662588    4.859675    2.956029    1.000000  -10.000000
  -10.000000    1.000000    2.895605    4.744202    6.502275    8.132862    9.607824   10.909103   12.028901   12.968877   13.738580   14.353430   14.832528   15.196597   15.466207   15.660458   15.796112   15.887157   15.944708   15.977186   15.990646   15.989212   15.975519   15.951163   15.917090   15.873951   15.822351   15.763005   15.696774   15.624523   15.546824   15.463470   15.372847   15.271220   15.151995   15.005101   14.816654   14.568965   14.241031   13.809607   13.250809   12.542215   11.665271   10.607762    9.366053    7.946753    6.367538    4.656898    2.852753    1.000000  -10.000000
  -10.000000    1.000000    2.746704    4.450093    6.070073    7.572587    8.931707   10.130798   11.162674   12.028866   12.738181   13.304851   13.746483   14.082206   14.331019   14.510584   14.636433   14.721566   14.776368   14.808770   14.824552   14.827724   14.820932   14.805837   14.783451   14.754429   14.719257   14.678377   14.632178   14.580889   14.524307   14.461408   14.389844   14.305370   14.201257   14.067798   13.892061   13.657897   13.346382   12.936738   12.407742   11.739558   10.915867    9.926073    8.767303    7.445927    5.978310    4.390603    2.717493    1.000000  -10.000000
  -10.000000    1.000000    2.569333    4.099753    5.555236    6.905187    8.126311    9.203660   10.130785   10.909060   11.546407   12.055609   12.452515   12.754317   12.978120   13.139834   13.253470   13.330781   13.381191   13.411939   13.428346   13.434155   13.431881   13.423139   13.408926   13.389858   13.366325   13.338568   13.306678   13.270488   13.229338   13.181787   13.125174   13.055172   12.965322   12.846641   12.687415   12.473227   12.187344   11.811503   11.327135   10.716944    9.966765    9.067501    8.016886    6.820826    5.494083    4.060088    2.549853    1.000000  -10.000000
  -10.000000    1.000000    2.363231    3.692660    4.956997    6.129664    7.190429    8.126306    8.931691    9.607784   10.161468   10.603850   10.948706   11.210983   11.405559   11.546279   11.645347   11.713024   11.757550   11.785284   11.800932   11.807828   11.808244   11.803654   11.794980   11.782768   11.767326   11.748767   11.727006   11.701662   11.671881   11.636080   11.591619   11.534426   11.458640   11.356298   11.217166   11.028779   10.776760   10.445494   10.019146    9.483017    8.825108    8.037768    7.119231    6.074746    4.917168    3.666817    2.350536    1.000000  -10.000000
  -10.000000    1.000000    2.129630    3.231250    4.278935    5.250661    6.129663    6.905181    7.572573    8.132832    8.591661    8.958273    9.244082    9.461484    9.622815    9.739566    9.821868    9.878252    9.915580    9.939161    9.952943    9.959737    9.961477    9.959422    9.954369    9.946778    9.936882    9.924716    9.910117    9.892634    9.871394    9.844899    9.810769    9.765455    9.703958    9.619585    9.503825    9.346382    9.135431    8.858175    8.501664    8.053898    7.505108    6.849113    6.084555    5.215851    4.253680    3.214859    2.121576    1.000000  -10.000000
  -10.000000    1.000000    1.871388    2.721171    3.529349    4.278934    4.956995    5.555232    6.070063    6.502254    6.856207    7.139029    7.359526    7.527265    7.651768    7.741905    7.805506    7.849160    7.878182    7.896690    7.907751    7.913561    7.915634    7.914968    7.912189    7.907660    7.901543    7.893839    7.884370    7.872720    7.858128    7.839339    7.814423    7.780550    7.733787    7.668928    7.579389    7.457241    7.293413    7.078104    6.801413    6.454179    6.028958    5.521059    4.929492    4.257703    3.513941    2.711168    1.866472    1.000000  -10.000000
  -10.000000    1.000000    1.592961    2.171221    2.721171    3.231250    3.692659    4.099750    4.450086    4.744189    4.985054    5.177517    5.327574    5.441734    5.526479    5.587849    5.631177    5.660954    5.680803    5.693536    5.701251    5.705452    5.707183    5.707131    5.705729    5.703224    5.699723    5.695212    5.689548    5.682418    5.673265    5.661198    5.644855    5.622272    5.590744    5.546707    5.485671    5.402249    5.290289    5.143153    4.954141    4.717060    4.426884    4.080456    3.677126    3.219256    2.712465    2.165569    1.590183    1.000000  -10.000000
  -10.000000    1.000000    1.300202    1.592961    1.871388    2.129629    2.363230    2.569332    2.746700    2.895599    3.017545    3.114988    3.190961    3.248763    3.291674    3.322754    3.344704    3.359799    3.369877    3.376362    3.380320    3.382518    3.383484    3.383571    3.382999    3.381893    3.380306    3.378227    3.375579    3.372193    3.367778    3.361869    3.353766    3.342465    3.326586    3.304318    3.273387    3.231068    3.174251    3.099585    3.003688    2.883435    2.736295    2.560678    2.356263    2.124249    1.867481    1.590425    1.298956    1.000000  -10.000000
  -10.000000    1.000000    1.000000    1.000000    1.000000    1.000000    1.000000    1.000000    1.000000    1.000000    1.000000    1.000000    1.000000    1.000000    1.000000    1.000000    1.000000    1.000000    1.000000    1.000000    1.000000    1.000000    1.000000    1.000000    1.000000    1.000000    1.000000    1.000000    1.000000    1.000000    1.000000    1.000000    1.000000    1.000000    1.000000    1.000000    1.000000    1.000000    1.000000    1.000000    1.000000    1.000000    1.000000    1.000000    1.000000    1.000000    1.000000    1.000000    1.000000    1.000000  -10.000000
  -10.000000  -10.000000  -10.000000  -10.000000  -10.000000  -10.000000  -10.000000  -10.000000  -10.000000  -10.000000  -10.000000  -10.000000  -10.000000  -10.000000  -10.000000  -10.000000  -10.000000  -10.000000  -10.000000  -10.000000  -10.000000  -10.000000  -10.000000  -10.000000  -10.000000  -10.000000  -10.000000  -10.000000  -10.000000  -10.000000  -10.000000  -10.000000  -10.000000  -10.000000  -10.000000  -10.000000  -10.000000  -10.000000  -10.000000  -10.000000  -10.000000  -10.000000  -10.000000  -10.000000  -10.000000  -10.000000  -10.000000  -10.000000  -10.000000  -10.000000  -10.000000
