96.617859   96.617859   96.617859   96.617859   96.617859   96.617859   96.617859   96.617859   96.617859   96.617859   96.617859   96.617859   96.617859   96.617859   96.617844   96.617775   96.617607   96.617111   96.615753   96.612289   96.603920   96.584938   96.544701   96.465034   96.318176   96.066864   95.668678   95.086052   94.300491   93.326515   92.217735   91.059868   89.951080   88.977104   88.191544   87.608910   87.210739   86.959435   86.812569   86.732895   86.692657   86.673683   86.665298   86.661827   86.660477   86.659996   86.659828   86.659767   86.659752   86.659744   86.659744   86.659744   86.659744   86.659744   86.659744   86.659744   86.659744   86.659744   86.659744   86.659744   86.659744   86.659744   86.659744   86.659744   86.659744   86.659744   86.659744   86.659744   86.659744   86.659744   86.659744   86.659744   86.659744   86.659744   86.659744   86.659744   86.659744   86.659744   86.659744   86.659744   86.659744   86.659744   86.659744   86.659744   86.659744   86.659744   86.659744   86.659744   86.659744   86.659744   86.659744   86.659744   86.659744   86.659744   86.659744   86.659744   86.659744   86.659744   86.659744   86.659744   86.659744   86.659744   86.659744   86.659744   86.659744   86.659744   86.659744   86.659744   86.659744   86.659744   86.659744   86.659744   86.659744   86.659744   86.659744   86.659744   86.659744   86.659744   86.659744   86.659744   86.659744   86.659744   86.659744   86.659744   86.659744   86.659744   86.659744   86.659744   86.659744   86.659744   86.659744   86.659744   86.659744   86.659744   86.659744   86.659744   86.659744   86.659744   86.659744   86.659744   86.659744   86.659744   86.659744   86.659744   86.659744   86.659744   86.659744   86.659744   86.659744   86.659744   86.659744   86.659744   86.659744
96.197266   96.197266   96.197266   96.197266   96.197266   96.197266   96.197266   96.197266   96.197266   96.197266   96.197266   96.197266   96.197266   96.197266   96.197243   96.197189   96.197006   96.196510   96.195160   96.191689   96.183311   96.164330   96.124054   96.044334   95.897392   95.645905   95.247467   94.664436   93.878372   92.903755   91.794266   90.635620   89.526115   88.551491   87.765419   87.182404   86.783974   86.532501   86.385536   86.305817   86.265556   86.246567   86.238190   86.234711   86.233360   86.232872   86.232712   86.232643   86.232628   86.232620   86.232620   86.232620   86.232620   86.232620   86.232620   86.232620   86.232620   86.232620   86.232620   86.232620   86.232620   86.232620   86.232620   86.232620   86.232620   86.232620   86.232620   86.232620   86.232620   86.232620   86.232620   86.232620   86.232620   86.232620   86.232620   86.232620   86.232620   86.232620   86.232620   86.232620   86.232620   86.232620   86.232620   86.232620   86.232620   86.232620   86.232620   86.232620   86.232620   86.232620   86.232620   86.232620   86.232620   86.232620   86.232620   86.232620   86.232620   86.232620   86.232620   86.232620   86.232620   86.232620   86.232620   86.232620   86.232620   86.232620   86.232620   86.232620   86.232620   86.232620   86.232620   86.232620   86.232620   86.232620   86.232620   86.232620   86.232620   86.232620   86.232620   86.232620   86.232620   86.232620   86.232620   86.232620   86.232620   86.232620   86.232620   86.232620   86.232620   86.232620   86.232620   86.232620   86.232620   86.232620   86.232620   86.232620   86.232620   86.232620   86.232620   86.232620   86.232620   86.232620   86.232620   86.232620   86.232620   86.232620   86.232620   86.232620   86.232620   86.232620   86.232620   86.232620   86.232620
95.606636   95.606636   95.606636   95.606636   95.606636   95.606636   95.606636   95.606636   95.606636   95.606636   95.606636   95.606636   95.606636   95.606636   95.606621   95.606544   95.606369   95.605888   95.604530   95.601059   95.592674   95.573677   95.533379   95.453590   95.306519   95.054848   94.656090   94.072601   93.285912   92.310516   91.200134   90.040596   88.930206   87.954811   87.168106   86.584610   86.185875   85.934219   85.787148   85.707367   85.667061   85.648064   85.639679   85.636192   85.634819   85.634346   85.634171   85.634117   85.634102   85.634094   85.634094   85.634094   85.634094   85.634094   85.634094   85.634094   85.634094   85.634094   85.634094   85.634094   85.634094   85.634094   85.634094   85.634094   85.634094   85.634094   85.634094   85.634094   85.634094   85.634094   85.634094   85.634094   85.634094   85.634094   85.634094   85.634094   85.634094   85.634094   85.634094   85.634094   85.634094   85.634094   85.634094   85.634094   85.634094   85.634094   85.634094   85.634094   85.634094   85.634094   85.634094   85.634094   85.634094   85.634094   85.634094   85.634094   85.634094   85.634094   85.634094   85.634094   85.634094   85.634094   85.634094   85.634094   85.634094   85.634094   85.634094   85.634094   85.634094   85.634094   85.634094   85.634094   85.634094   85.634094   85.634094   85.634094   85.634094   85.634094   85.634094   85.634094   85.634094   85.634094   85.634094   85.634094   85.634094   85.634094   85.634094   85.634094   85.634094   85.634094   85.634094   85.634094   85.634094   85.634094   85.634094   85.634094   85.634094   85.634094   85.634094   85.634094   85.634094   85.634094   85.634094   85.634094   85.634094   85.634094   85.634094   85.634094   85.634094   85.634094   85.634094   85.634094   85.634094
94.883904   94.883904   94.883904   94.883904   94.883904   94.883904   94.883904   94.883904   94.883904   94.883904   94.883904   94.883896   94.883896   94.883896   94.883881   94.883820   94.883644   94.883148   94.881798   94.878326   94.869942   94.850929   94.810600   94.730743   94.583549   94.331673   93.932617   93.348671   92.561363   91.585213   90.473961   89.313515   88.202232   87.226089   86.438774   85.854828   85.455772   85.203903   85.056740   84.976883   84.936562   84.917526   84.909142   84.905670   84.904320   84.903824   84.903664   84.903595   84.903580   84.903572   84.903572   84.903572   84.903572   84.903572   84.903572   84.903572   84.903572   84.903572   84.903572   84.903572   84.903572   84.903572   84.903572   84.903572   84.903572   84.903572   84.903572   84.903572   84.903572   84.903572   84.903572   84.903572   84.903572   84.903572   84.903572   84.903572   84.903572   84.903572   84.903572   84.903572   84.903572   84.903572   84.903572   84.903572   84.903572   84.903572   84.903572   84.903572   84.903572   84.903572   84.903572   84.903572   84.903572   84.903572   84.903572   84.903572   84.903572   84.903572   84.903572   84.903572   84.903572   84.903572   84.903572   84.903572   84.903572   84.903572   84.903572   84.903572   84.903572   84.903572   84.903572   84.903572   84.903572   84.903572   84.903572   84.903572   84.903572   84.903572   84.903572   84.903572   84.903572   84.903572   84.903572   84.903572   84.903572   84.903572   84.903572   84.903572   84.903572   84.903572   84.903572   84.903572   84.903572   84.903572   84.903572   84.903572   84.903572   84.903572   84.903572   84.903572   84.903572   84.903572   84.903572   84.903572   84.903572   84.903572   84.903572   84.903572   84.903572   84.903572   84.903572   84.903572   84.903572
94.066574   94.066574   94.066574   94.066574   94.066574   94.066574   94.066574   94.066574   94.066574   94.066574   94.066574   94.066566   94.066566   94.066559   94.066544   94.066490   94.066322   94.065826   94.064461   94.060997   94.052605   94.033585   93.993233   93.913307   93.766029   93.513985   93.114655   92.530327   91.742477   90.765678   89.653687   88.492455   87.380447   86.403648   85.615799   85.031471   84.632141   84.380112   84.232849   84.152954   84.112564   84.093552   84.085159   84.081688   84.080338   84.079842   84.079666   84.079613   84.079597   84.079590   84.079590   84.079590   84.079590   84.079590   84.079590   84.079590   84.079590   84.079590   84.079590   84.079590   84.079590   84.079590   84.079590   84.079590   84.079590   84.079590   84.079590   84.079590   84.079590   84.079590   84.079590   84.079590   84.079590   84.079590   84.079590   84.079590   84.079590   84.079590   84.079590   84.079590   84.079590   84.079590   84.079590   84.079590   84.079590   84.079590   84.079590   84.079590   84.079590   84.079590   84.079590   84.079590   84.079590   84.079590   84.079590   84.079590   84.079590   84.079590   84.079590   84.079590   84.079590   84.079590   84.079590   84.079590   84.079590   84.079590   84.079590   84.079590   84.079590   84.079590   84.079590   84.079590   84.079590   84.079590   84.079590   84.079590   84.079590   84.079590   84.079590   84.079590   84.079590   84.079590   84.079590   84.079590   84.079590   84.079590   84.079590   84.079590   84.079590   84.079590   84.079590   84.079590   84.079590   84.079590   84.079590   84.079590   84.079590   84.079590   84.079590   84.079590   84.079590   84.079590   84.079590   84.079590   84.079590   84.079590   84.079590   84.079590   84.079590   84.079590   84.079590   84.079590   84.079590
93.186684   93.186684   93.186684   93.186684   93.186684   93.186684   93.186684   93.186684   93.186684   93.186684   93.186676   93.186676   93.186676   93.186668   93.186653   93.186600   93.186424   93.185936   93.184578   93.181099   93.172699   93.153671   93.113304   93.033363   92.885994   92.633827   92.234291   91.649658   90.861420   89.884125   88.771568   87.609734   86.497177   85.519890   84.731644   84.147018   83.747482   83.495323   83.347977   83.268036   83.227661   83.208626   83.200233   83.196754   83.195396   83.194901   83.194733   83.194672   83.194656   83.194649   83.194649   83.194649   83.194649   83.194649   83.194649   83.194649   83.194649   83.194649   83.194649   83.194649   83.194649   83.194649   83.194649   83.194649   83.194649   83.194649   83.194649   83.194649   83.194649   83.194649   83.194649   83.194649   83.194649   83.194649   83.194649   83.194649   83.194649   83.194649   83.194649   83.194649   83.194649   83.194649   83.194649   83.194649   83.194649   83.194649   83.194649   83.194649   83.194649   83.194649   83.194649   83.194649   83.194649   83.194649   83.194649   83.194649   83.194649   83.194649   83.194649   83.194649   83.194649   83.194649   83.194649   83.194649   83.194649   83.194649   83.194649   83.194649   83.194649   83.194649   83.194649   83.194649   83.194649   83.194649   83.194649   83.194649   83.194649   83.194649   83.194649   83.194649   83.194649   83.194649   83.194649   83.194649   83.194649   83.194649   83.194649   83.194649   83.194649   83.194649   83.194649   83.194649   83.194649   83.194649   83.194649   83.194649   83.194649   83.194649   83.194649   83.194649   83.194649   83.194649   83.194649   83.194649   83.194649   83.194649   83.194649   83.194649   83.194649   83.194649   83.194649   83.194649   83.194649
92.268494   92.268494   92.268494   92.268494   92.268494   92.268494   92.268494   92.268494   92.268494   92.268494   92.268494   92.268494   92.268494   92.268486   92.268471   92.268402   92.268234   92.267738   92.266388   92.262917   92.254517   92.235481   92.195091   92.115128   91.967712   91.715454   91.315788   90.730949   89.942436   88.964813   87.851875   86.689636   85.576698   84.599083   83.810555   83.225723   82.826042   82.573784   82.426407   82.346451   82.306068   82.287018   82.278618   82.275131   82.273781   82.273285   82.273094   82.273048   82.273026   82.273018   82.273018   82.273018   82.273010   82.273010   82.273010   82.273010   82.273010   82.273010   82.273010   82.273010   82.273010   82.273010   82.273010   82.273010   82.273010   82.273010   82.273010   82.273010   82.273010   82.273010   82.273010   82.273010   82.273010   82.273010   82.273010   82.273010   82.273010   82.273010   82.273010   82.273010   82.273010   82.273010   82.273010   82.273010   82.273010   82.273010   82.273010   82.273010   82.273010   82.273010   82.273010   82.273010   82.273010   82.273010   82.273010   82.273010   82.273010   82.273010   82.273010   82.273010   82.273010   82.273010   82.273010   82.273010   82.273010   82.273010   82.273010   82.273010   82.273010   82.273010   82.273010   82.273010   82.273010   82.273010   82.273010   82.273010   82.273010   82.273010   82.273010   82.273010   82.273010   82.273010   82.273010   82.273010   82.273010   82.273010   82.273010   82.273010   82.273010   82.273010   82.273010   82.273010   82.273010   82.273010   82.273010   82.273010   82.273010   82.273010   82.273010   82.273010   82.273010   82.273010   82.273010   82.273010   82.273010   82.273010   82.273010   82.273010   82.273010   82.273010   82.273010   82.273010   82.273010
91.328568   91.328568   91.328568   91.328568   91.328568   91.328568   91.328568   91.328568   91.328568   91.328568   91.328568   91.328568   91.328560   91.328552   91.328529   91.328476   91.328300   91.327797   91.326454   91.322975   91.314575   91.295540   91.255150   91.175171   91.027733   90.775414   90.375656   89.790703   89.002014   88.024185   86.911011   85.748550   84.635338   83.657509   82.868828   82.283867   81.884117   81.631821   81.484375   81.404396   81.364014   81.344986   81.336555   81.333069   81.331711   81.331207   81.331032   81.330986   81.330963   81.330956   81.330956   81.330956   81.330956   81.330956   81.330956   81.330956   81.330956   81.330956   81.330956   81.330956   81.330956   81.330956   81.330956   81.330956   81.330956   81.330956   81.330956   81.330956   81.330956   81.330956   81.330956   81.330956   81.330956   81.330956   81.330956   81.330956   81.330956   81.330956   81.330956   81.330956   81.330956   81.330956   81.330956   81.330956   81.330956   81.330956   81.330956   81.330956   81.330956   81.330956   81.330956   81.330956   81.330956   81.330956   81.330956   81.330956   81.330956   81.330956   81.330956   81.330956   81.330956   81.330956   81.330956   81.330956   81.330956   81.330956   81.330956   81.330956   81.330956   81.330956   81.330956   81.330956   81.330956   81.330956   81.330956   81.330956   81.330956   81.330956   81.330956   81.330956   81.330956   81.330956   81.330956   81.330956   81.330956   81.330956   81.330956   81.330956   81.330956   81.330956   81.330956   81.330956   81.330956   81.330956   81.330956   81.330956   81.330956   81.330956   81.330956   81.330956   81.330956   81.330956   81.330956   81.330956   81.330956   81.330956   81.330956   81.330956   81.330956   81.330956   81.330956   81.330956   81.330956
90.377144   90.377144   90.377144   90.377144   90.377144   90.377144   90.377144   90.377144   90.377144   90.377144   90.377144   90.377144   90.377144   90.377136   90.377106   90.377045   90.376869   90.376366   90.375023   90.371552   90.363159   90.344116   90.303726   90.223732   90.076279   89.823944   89.424118   88.839104   88.050339   87.072380   85.959068   84.796455   83.683128   82.705170   81.916405   81.331360   80.931557   80.679214   80.531769   80.451775   80.411377   80.392342   80.383942   80.380440   80.379074   80.378578   80.378395   80.378342   80.378326   80.378326   80.378326   80.378326   80.378326   80.378326   80.378326   80.378326   80.378326   80.378326   80.378326   80.378326   80.378326   80.378326   80.378326   80.378326   80.378326   80.378326   80.378326   80.378326   80.378326   80.378326   80.378326   80.378326   80.378326   80.378326   80.378326   80.378326   80.378326   80.378326   80.378326   80.378326   80.378326   80.378326   80.378326   80.378326   80.378326   80.378326   80.378326   80.378326   80.378326   80.378326   80.378326   80.378326   80.378326   80.378326   80.378326   80.378326   80.378326   80.378326   80.378326   80.378326   80.378326   80.378326   80.378326   80.378326   80.378326   80.378326   80.378326   80.378326   80.378326   80.378326   80.378326   80.378326   80.378326   80.378326   80.378326   80.378326   80.378326   80.378326   80.378326   80.378326   80.378326   80.378326   80.378326   80.378326   80.378326   80.378326   80.378326   80.378326   80.378326   80.378326   80.378326   80.378326   80.378326   80.378326   80.378326   80.378326   80.378326   80.378326   80.378326   80.378326   80.378326   80.378326   80.378326   80.378326   80.378326   80.378326   80.378326   80.378326   80.378326   80.378326   80.378326   80.378326   80.378326
89.420052   89.420052   89.420052   89.420052   89.420052   89.420052   89.420052   89.420052   89.420052   89.420052   89.420052   89.420052   89.420052   89.420044   89.420021   89.419952   89.419777   89.419273   89.417931   89.414467   89.406090   89.387054   89.346649   89.266647   89.119179   88.866829   88.466980   87.881920   87.093102   86.115082   85.001709   83.839027   82.725632   81.747604   80.958786   80.373703   79.973877   79.721535   79.574059   79.494064   79.453667   79.434639   79.426247   79.422768   79.421379   79.420853   79.420677   79.420616   79.420601   79.420601   79.420601   79.420601   79.420601   79.420601   79.420601   79.420601   79.420601   79.420601   79.420601   79.420601   79.420601   79.420601   79.420601   79.420601   79.420601   79.420601   79.420601   79.420601   79.420601   79.420601   79.420601   79.420601   79.420601   79.420601   79.420601   79.420601   79.420601   79.420601   79.420601   79.420601   79.420601   79.420601   79.420601   79.420601   79.420601   79.420601   79.420601   79.420601   79.420601   79.420601   79.420601   79.420601   79.420601   79.420601   79.420601   79.420601   79.420601   79.420601   79.420601   79.420601   79.420601   79.420601   79.420601   79.420601   79.420601   79.420601   79.420601   79.420601   79.420601   79.420601   79.420601   79.420601   79.420601   79.420601   79.420601   79.420601   79.420601   79.420601   79.420601   79.420601   79.420601   79.420601   79.420601   79.420601   79.420601   79.420601   79.420601   79.420601   79.420601   79.420601   79.420601   79.420601   79.420601   79.420601   79.420601   79.420601   79.420601   79.420601   79.420601   79.420601   79.420601   79.420601   79.420601   79.420601   79.420601   79.420601   79.420601   79.420601   79.420601   79.420601   79.420601   79.420601   79.420601
88.460350   88.460350   88.460350   88.460350   88.460350   88.460350   88.460350   88.460350   88.460350   88.460350   88.460350   88.460350   88.460350   88.460342   88.460320   88.460258   88.460075   88.459579   88.458244   88.454781   88.446388   88.427353   88.386955   88.306953   88.159485   87.907127   87.507271   86.922188   86.133354   85.155304   84.041885   82.879173   81.765747   80.787697   79.998840   79.413727   79.013893   78.761543   78.614067   78.534065   78.493683   78.474648   78.466255   78.462799   78.461441   78.460892   78.460678   78.460640   78.460625   78.460617   78.460617   78.460617   78.460617   78.460617   78.460617   78.460617   78.460617   78.460617   78.460609   78.460609   78.460609   78.460609   78.460609   78.460609   78.460609   78.460609   78.460609   78.460609   78.460609   78.460609   78.460609   78.460609   78.460609   78.460609   78.460609   78.460609   78.460609   78.460609   78.460609   78.460609   78.460609   78.460609   78.460609   78.460609   78.460609   78.460609   78.460609   78.460609   78.460609   78.460609   78.460609   78.460609   78.460609   78.460609   78.460609   78.460609   78.460609   78.460609   78.460609   78.460609   78.460609   78.460609   78.460609   78.460609   78.460609   78.460609   78.460609   78.460609   78.460609   78.460609   78.460609   78.460609   78.460609   78.460609   78.460609   78.460609   78.460609   78.460609   78.460609   78.460609   78.460609   78.460609   78.460609   78.460609   78.460609   78.460609   78.460609   78.460609   78.460609   78.460609   78.460609   78.460609   78.460609   78.460609   78.460609   78.460609   78.460609   78.460609   78.460609   78.460609   78.460609   78.460609   78.460609   78.460609   78.460609   78.460609   78.460609   78.460609   78.460609   78.460609   78.460609   78.460609   78.460609
87.499557   87.499557   87.499557   87.499557   87.499557   87.499557   87.499557   87.499557   87.499557   87.499557   87.499557   87.499557   87.499557   87.499550   87.499535   87.499458   87.499252   87.498779   87.497429   87.493958   87.485573   87.466537   87.426140   87.346138   87.198669   86.946304   86.546425   85.961349   85.172508   84.194435   83.081009   81.918289   80.804848   79.826775   79.037918   78.452812   78.052956   77.800598   77.653122   77.573120   77.532730   77.513687   77.505310   77.501846   77.500504   77.500000   77.499756   77.499672   77.499657   77.499649   77.499649   77.499649   77.499649   77.499649   77.499649   77.499649   77.499649   77.499649   77.499641   77.499641   77.499641   77.499641   77.499641   77.499641   77.499641   77.499641   77.499641   77.499641   77.499641   77.499641   77.499641   77.499641   77.499641   77.499641   77.499641   77.499641   77.499641   77.499641   77.499641   77.499641   77.499641   77.499641   77.499641   77.499641   77.499641   77.499641   77.499641   77.499641   77.499641   77.499641   77.499641   77.499641   77.499641   77.499641   77.499641   77.499641   77.499641   77.499641   77.499641   77.499641   77.499641   77.499641   77.499641   77.499641   77.499641   77.499641   77.499641   77.499641   77.499641   77.499641   77.499641   77.499641   77.499641   77.499641   77.499641   77.499641   77.499641   77.499641   77.499641   77.499641   77.499641   77.499641   77.499641   77.499641   77.499641   77.499641   77.499641   77.499641   77.499641   77.499641   77.499641   77.499641   77.499641   77.499641   77.499641   77.499641   77.499641   77.499641   77.499641   77.499641   77.499641   77.499641   77.499641   77.499641   77.499641   77.499641   77.499641   77.499641   77.499641   77.499641   77.499641   77.499641   77.499641
86.538338   86.538338   86.538338   86.538338   86.538338   86.538338   86.538338   86.538338   86.538338   86.538338   86.538338   86.538338   86.538330   86.538322   86.538284   86.538200   86.538033   86.537506   86.536156   86.532692   86.524307   86.505272   86.464867   86.384865   86.237396   85.985031   85.585175   85.000076   84.211212   83.233154   82.119713   80.956985   79.843552   78.865479   78.076599   77.491478   77.091644   76.839279   76.691803   76.611794   76.571396   76.552361   76.543968   76.540512   76.539177   76.538651   76.538460   76.538406   76.538391   76.538383   76.538383   76.538383   76.538383   76.538383   76.538383   76.538383   76.538383   76.538383   76.538376   76.538376   76.538376   76.538376   76.538376   76.538376   76.538376   76.538376   76.538376   76.538376   76.538376   76.538376   76.538376   76.538376   76.538376   76.538376   76.538376   76.538376   76.538376   76.538376   76.538376   76.538376   76.538376   76.538376   76.538376   76.538376   76.538376   76.538376   76.538376   76.538376   76.538376   76.538376   76.538376   76.538376   76.538376   76.538376   76.538376   76.538376   76.538376   76.538376   76.538376   76.538376   76.538376   76.538376   76.538376   76.538376   76.538376   76.538376   76.538376   76.538376   76.538376   76.538376   76.538376   76.538376   76.538376   76.538376   76.538376   76.538376   76.538376   76.538376   76.538376   76.538376   76.538376   76.538376   76.538376   76.538376   76.538376   76.538376   76.538376   76.538376   76.538376   76.538376   76.538376   76.538376   76.538376   76.538376   76.538376   76.538376   76.538376   76.538376   76.538376   76.538376   76.538376   76.538376   76.538376   76.538376   76.538376   76.538376   76.538376   76.538376   76.538376   76.538376   76.538376   76.538376   76.538376
85.576920   85.576920   85.576920   85.576920   85.576920   85.576920   85.576920   85.576920   85.576920   85.576920   85.576920   85.576920   85.576920   85.576920   85.576897   85.576797   85.576576   85.576088   85.574730   85.571259   85.562866   85.543831   85.503433   85.423424   85.275948   85.023575   84.623688   84.038612   83.249763   82.271698   81.158257   79.995529   78.882095   77.904015   77.115150   76.530045   76.130196   75.877815   75.730339   75.650337   75.609924   75.590889   75.582497   75.579025   75.577682   75.577179   75.576950   75.576920   75.576920   75.576920   75.576920   75.576920   75.576920   75.576920   75.576920   75.576920   75.576920   75.576920   75.576920   75.576920   75.576920   75.576920   75.576920   75.576920   75.576920   75.576920   75.576920   75.576920   75.576920   75.576920   75.576920   75.576920   75.576920   75.576920   75.576920   75.576920   75.576920   75.576920   75.576920   75.576920   75.576920   75.576920   75.576920   75.576920   75.576920   75.576920   75.576920   75.576920   75.576920   75.576920   75.576920   75.576920   75.576920   75.576920   75.576920   75.576920   75.576920   75.576920   75.576920   75.576920   75.576920   75.576920   75.576920   75.576920   75.576920   75.576920   75.576920   75.576920   75.576920   75.576920   75.576920   75.576920   75.576920   75.576920   75.576920   75.576920   75.576920   75.576920   75.576920   75.576920   75.576920   75.576920   75.576920   75.576920   75.576920   75.576920   75.576920   75.576920   75.576920   75.576920   75.576920   75.576920   75.576920   75.576920   75.576920   75.576920   75.576920   75.576920   75.576920   75.576920   75.576920   75.576920   75.576920   75.576920   75.576920   75.576920   75.576920   75.576920   75.576920   75.576920   75.576920   75.576920   75.576920
84.615387   84.615387   84.615387   84.615387   84.615387   84.615387   84.615387   84.615387   84.615387   84.615387   84.615387   84.615387   84.615387   84.615387   84.615387   84.615311   84.615074   84.614586   84.613235   84.609756   84.601372   84.582336   84.541931   84.461929   84.314438   84.062057   83.662178   83.077103   82.288254   81.310173   80.196732   79.034019   77.920578   76.942497   76.153641   75.568550   75.168686   74.916306   74.768822   74.688820   74.648407   74.629372   74.620979   74.617500   74.616158   74.615662   74.615425   74.615387   74.615387   74.615387   74.615387   74.615387   74.615387   74.615387   74.615387   74.615387   74.615387   74.615387   74.615387   74.615387   74.615387   74.615387   74.615387   74.615387   74.615387   74.615387   74.615387   74.615387   74.615387   74.615387   74.615387   74.615387   74.615387   74.615387   74.615387   74.615387   74.615387   74.615387   74.615387   74.615387   74.615387   74.615387   74.615387   74.615387   74.615387   74.615387   74.615387   74.615387   74.615387   74.615387   74.615387   74.615387   74.615387   74.615387   74.615387   74.615387   74.615387   74.615387   74.615387   74.615387   74.615387   74.615387   74.615387   74.615387   74.615387   74.615387   74.615387   74.615387   74.615387   74.615387   74.615387   74.615387   74.615387   74.615387   74.615387   74.615387   74.615387   74.615387   74.615387   74.615387   74.615387   74.615387   74.615387   74.615387   74.615387   74.615387   74.615387   74.615387   74.615387   74.615387   74.615387   74.615387   74.615387   74.615387   74.615387   74.615387   74.615387   74.615387   74.615387   74.615387   74.615387   74.615387   74.615387   74.615387   74.615387   74.615387   74.615387   74.615387   74.615387   74.615387   74.615387   74.615387   74.615387
83.653847   83.653847   83.653847   83.653847   83.653847   83.653847   83.653847   83.653847   83.653847   83.653847   83.653847   83.653847   83.653847   83.653847   83.653847   83.653793   83.653549   83.653061   83.651711   83.648239   83.639839   83.620811   83.580399   83.500397   83.352905   83.100525   82.700653   82.115578   81.326721   80.348640   79.235199   78.072487   76.959045   75.980965   75.192108   74.607025   74.207161   73.954781   73.807289   73.727287   73.686874   73.667847   73.659447   73.655968   73.654625   73.654129   73.653885   73.653847   73.653847   73.653847   73.653847   73.653847   73.653847   73.653847   73.653847   73.653847   73.653847   73.653847   73.653847   73.653847   73.653847   73.653847   73.653847   73.653847   73.653847   73.653847   73.653847   73.653847   73.653847   73.653847   73.653847   73.653847   73.653847   73.653847   73.653847   73.653847   73.653847   73.653847   73.653847   73.653847   73.653847   73.653847   73.653847   73.653847   73.653847   73.653847   73.653847   73.653847   73.653847   73.653847   73.653847   73.653847   73.653847   73.653847   73.653847   73.653847   73.653847   73.653847   73.653847   73.653847   73.653847   73.653847   73.653847   73.653847   73.653847   73.653847   73.653847   73.653847   73.653847   73.653847   73.653847   73.653847   73.653847   73.653847   73.653847   73.653847   73.653847   73.653847   73.653847   73.653847   73.653847   73.653847   73.653847   73.653847   73.653847   73.653847   73.653847   73.653847   73.653847   73.653847   73.653847   73.653847   73.653847   73.653847   73.653847   73.653847   73.653847   73.653847   73.653847   73.653847   73.653847   73.653847   73.653847   73.653847   73.653847   73.653847   73.653847   73.653847   73.653847   73.653847   73.653847   73.653847   73.653847
82.692307   82.692307   82.692307   82.692307   82.692307   82.692307   82.692307   82.692307   82.692307   82.692307   82.692307   82.692307   82.692307   82.692307   82.692307   82.692261   82.692017   82.691528   82.690178   82.686707   82.678307   82.659279   82.618866   82.538857   82.391365   82.138985   81.739113   81.154037   80.365181   79.387100   78.273666   77.110947   75.997513   75.019432   74.230576   73.645493   73.245621   72.993248   72.845757   72.765747   72.725334   72.706306   72.697906   72.694427   72.693085   72.692589   72.692352   72.692307   72.692307   72.692307   72.692307   72.692307   72.692307   72.692307   72.692307   72.692307   72.692307   72.692307   72.692307   72.692307   72.692307   72.692307   72.692307   72.692307   72.692307   72.692307   72.692307   72.692307   72.692307   72.692307   72.692307   72.692307   72.692307   72.692307   72.692307   72.692307   72.692307   72.692307   72.692307   72.692307   72.692307   72.692307   72.692307   72.692307   72.692307   72.692307   72.692307   72.692307   72.692307   72.692307   72.692307   72.692307   72.692307   72.692307   72.692307   72.692307   72.692307   72.692307   72.692307   72.692307   72.692307   72.692307   72.692307   72.692307   72.692307   72.692307   72.692307   72.692307   72.692307   72.692307   72.692307   72.692307   72.692307   72.692307   72.692307   72.692307   72.692307   72.692307   72.692307   72.692307   72.692307   72.692307   72.692307   72.692307   72.692307   72.692307   72.692307   72.692307   72.692307   72.692307   72.692307   72.692307   72.692307   72.692307   72.692307   72.692307   72.692307   72.692307   72.692307   72.692307   72.692307   72.692307   72.692307   72.692307   72.692307   72.692307   72.692307   72.692307   72.692307   72.692307   72.692307   72.692307   72.692307
81.730766   81.730766   81.730766   81.730766   81.730766   81.730766   81.730766   81.730766   81.730766   81.730766   81.730766   81.730766   81.730766   81.730766   81.730766   81.730721   81.730484   81.729988   81.728645   81.725166   81.716766   81.697739   81.657326   81.577324   81.429832   81.177452   80.777580   80.192505   79.403648   78.425568   77.312126   76.149414   75.035973   74.057892   73.269035   72.683960   72.284088   72.031708   71.884216   71.804207   71.763794   71.744766   71.736374   71.732895   71.731544   71.731049   71.730812   71.730766   71.730766   71.730766   71.730766   71.730766   71.730766   71.730766   71.730766   71.730766   71.730766   71.730766   71.730766   71.730766   71.730766   71.730766   71.730766   71.730766   71.730766   71.730766   71.730766   71.730766   71.730766   71.730766   71.730766   71.730766   71.730766   71.730766   71.730766   71.730766   71.730766   71.730766   71.730766   71.730766   71.730766   71.730766   71.730766   71.730766   71.730766   71.730766   71.730766   71.730766   71.730766   71.730766   71.730766   71.730766   71.730766   71.730766   71.730766   71.730766   71.730766   71.730766   71.730766   71.730766   71.730766   71.730766   71.730766   71.730766   71.730766   71.730766   71.730766   71.730766   71.730766   71.730766   71.730766   71.730766   71.730766   71.730766   71.730766   71.730766   71.730766   71.730766   71.730766   71.730766   71.730766   71.730766   71.730766   71.730766   71.730766   71.730766   71.730766   71.730766   71.730766   71.730766   71.730766   71.730766   71.730766   71.730766   71.730766   71.730766   71.730766   71.730766   71.730766   71.730766   71.730766   71.730766   71.730766   71.730766   71.730766   71.730766   71.730766   71.730766   71.730766   71.730766   71.730766   71.730766   71.730766
80.769234   80.769234   80.769234   80.769234   80.769234   80.769234   80.769234   80.769234   80.769234   80.769234   80.769234   80.769234   80.769234   80.769234   80.769234   80.769188   80.768951   80.768456   80.767105   80.763626   80.755234   80.736206   80.695793   80.615784   80.468292   80.215912   79.816040   79.230965   78.442108   77.464027   76.350586   75.187874   74.074432   73.096352   72.307495   71.722420   71.322548   71.070168   70.922676   70.842674   70.802261   70.783234   70.774834   70.771355   70.770012   70.769516   70.769279   70.769234   70.769234   70.769234   70.769234   70.769234   70.769234   70.769234   70.769234   70.769234   70.769234   70.769234   70.769234   70.769234   70.769234   70.769234   70.769234   70.769234   70.769234   70.769234   70.769234   70.769234   70.769234   70.769234   70.769234   70.769234   70.769234   70.769234   70.769234   70.769234   70.769234   70.769234   70.769234   70.769234   70.769234   70.769234   70.769234   70.769234   70.769234   70.769234   70.769234   70.769234   70.769234   70.769234   70.769234   70.769234   70.769234   70.769234   70.769234   70.769234   70.769234   70.769234   70.769234   70.769234   70.769234   70.769234   70.769234   70.769234   70.769234   70.769234   70.769234   70.769234   70.769234   70.769234   70.769234   70.769234   70.769234   70.769234   70.769234   70.769234   70.769234   70.769234   70.769234   70.769234   70.769234   70.769234   70.769234   70.769234   70.769234   70.769234   70.769234   70.769234   70.769234   70.769234   70.769234   70.769234   70.769234   70.769234   70.769234   70.769234   70.769234   70.769234   70.769234   70.769234   70.769234   70.769234   70.769234   70.769234   70.769234   70.769234   70.769234   70.769234   70.769234   70.769234   70.769234   70.769234   70.769234
79.807693   79.807693   79.807693   79.807693   79.807693   79.807693   79.807693   79.807693   79.807693   79.807693   79.807693   79.807693   79.807693   79.807693   79.807693   79.807648   79.807411   79.806915   79.805565   79.802094   79.793694   79.774666   79.734253   79.654243   79.506752   79.254372   78.854500   78.269424   77.480568   76.502487   75.389053   74.226334   73.112900   72.134819   71.345963   70.760887   70.361015   70.108635   69.961143   69.881134   69.840721   69.821693   69.813293   69.809814   69.808472   69.807976   69.807739   69.807693   69.807693   69.807693   69.807693   69.807693   69.807693   69.807693   69.807693   69.807693   69.807693   69.807693   69.807693   69.807693   69.807693   69.807693   69.807693   69.807693   69.807693   69.807693   69.807693   69.807693   69.807693   69.807693   69.807693   69.807693   69.807693   69.807693   69.807693   69.807693   69.807693   69.807693   69.807693   69.807693   69.807693   69.807693   69.807693   69.807693   69.807693   69.807693   69.807693   69.807693   69.807693   69.807693   69.807693   69.807693   69.807693   69.807693   69.807693   69.807693   69.807693   69.807693   69.807693   69.807693   69.807693   69.807693   69.807693   69.807693   69.807693   69.807693   69.807693   69.807693   69.807693   69.807693   69.807693   69.807693   69.807693   69.807693   69.807693   69.807693   69.807693   69.807693   69.807693   69.807693   69.807693   69.807693   69.807693   69.807693   69.807693   69.807693   69.807693   69.807693   69.807693   69.807693   69.807693   69.807693   69.807693   69.807693   69.807693   69.807693   69.807693   69.807693   69.807693   69.807693   69.807693   69.807693   69.807693   69.807693   69.807693   69.807693   69.807693   69.807693   69.807693   69.807693   69.807693   69.807693   69.807693
78.846153   78.846153   78.846153   78.846153   78.846153   78.846153   78.846153   78.846153   78.846153   78.846153   78.846153   78.846153   78.846153   78.846153   78.846153   78.846107   78.845871   78.845375   78.844032   78.840553   78.832153   78.813126   78.772713   78.692703   78.545212   78.292831   77.892960   77.307884   76.519028   75.540947   74.427513   73.264793   72.151360   71.173279   70.384422   69.799347   69.399475   69.147095   68.999603   68.919594   68.879181   68.860153   68.851753   68.848282   68.846931   68.846436   68.846199   68.846153   68.846153   68.846153   68.846153   68.846153   68.846153   68.846153   68.846153   68.846153   68.846153   68.846153   68.846153   68.846153   68.846153   68.846153   68.846153   68.846153   68.846153   68.846153   68.846153   68.846153   68.846153   68.846153   68.846153   68.846153   68.846153   68.846153   68.846153   68.846153   68.846153   68.846153   68.846153   68.846153   68.846153   68.846153   68.846153   68.846153   68.846153   68.846153   68.846153   68.846153   68.846153   68.846153   68.846153   68.846153   68.846153   68.846153   68.846153   68.846153   68.846153   68.846153   68.846153   68.846153   68.846153   68.846153   68.846153   68.846153   68.846153   68.846153   68.846153   68.846153   68.846153   68.846153   68.846153   68.846153   68.846153   68.846153   68.846153   68.846153   68.846153   68.846153   68.846153   68.846153   68.846153   68.846153   68.846153   68.846153   68.846153   68.846153   68.846153   68.846153   68.846153   68.846153   68.846153   68.846153   68.846153   68.846153   68.846153   68.846153   68.846153   68.846153   68.846153   68.846153   68.846153   68.846153   68.846153   68.846153   68.846153   68.846153   68.846153   68.846153   68.846153   68.846153   68.846153   68.846153   68.846153
77.884613   77.884613   77.884613   77.884613   77.884613   77.884613   77.884613   77.884613   77.884613   77.884613   77.884613   77.884613   77.884613   77.884613   77.884613   77.884567   77.884331   77.883835   77.882492   77.879013   77.870613   77.851585   77.811172   77.731171   77.583679   77.331299   76.931427   76.346352   75.557495   74.579414   73.465973   72.303261   71.189819   70.211739   69.422882   68.837807   68.437935   68.185555   68.038063   67.958054   67.917648   67.898621   67.890221   67.886742   67.885391   67.884895   67.884659   67.884613   67.884613   67.884613   67.884613   67.884613   67.884613   67.884613   67.884613   67.884613   67.884613   67.884613   67.884613   67.884613   67.884613   67.884613   67.884613   67.884613   67.884613   67.884613   67.884613   67.884613   67.884613   67.884613   67.884613   67.884613   67.884613   67.884613   67.884613   67.884613   67.884613   67.884613   67.884613   67.884613   67.884613   67.884613   67.884613   67.884613   67.884613   67.884613   67.884613   67.884613   67.884613   67.884613   67.884613   67.884613   67.884613   67.884613   67.884613   67.884613   67.884613   67.884613   67.884613   67.884613   67.884613   67.884613   67.884613   67.884613   67.884613   67.884613   67.884613   67.884613   67.884613   67.884613   67.884613   67.884613   67.884613   67.884613   67.884613   67.884613   67.884613   67.884613   67.884613   67.884613   67.884613   67.884613   67.884613   67.884613   67.884613   67.884613   67.884613   67.884613   67.884613   67.884613   67.884613   67.884613   67.884613   67.884613   67.884613   67.884613   67.884613   67.884613   67.884613   67.884613   67.884613   67.884613   67.884613   67.884613   67.884613   67.884613   67.884613   67.884613   67.884613   67.884613   67.884613   67.884613   67.884613
76.923080   76.923080   76.923080   76.923080   76.923080   76.923080   76.923080   76.923080   76.923080   76.923080   76.923080   76.923080   76.923080   76.923080   76.923080   76.923035   76.922798   76.922302   76.920952   76.917473   76.909081   76.890053   76.849640   76.769630   76.622139   76.369759   75.969887   75.384811   74.595955   73.617874   72.504433   71.341721   70.228279   69.250198   68.461342   67.876266   67.476395   67.224014   67.076523   66.996521   66.956108   66.937080   66.928680   66.925201   66.923859   66.923363   66.923126   66.923080   66.923080   66.923080   66.923080   66.923080   66.923080   66.923080   66.923080   66.923080   66.923080   66.923080   66.923080   66.923080   66.923080   66.923080   66.923080   66.923080   66.923080   66.923080   66.923080   66.923080   66.923080   66.923080   66.923080   66.923080   66.923080   66.923080   66.923080   66.923080   66.923080   66.923080   66.923080   66.923080   66.923080   66.923080   66.923080   66.923080   66.923080   66.923080   66.923080   66.923080   66.923080   66.923080   66.923080   66.923080   66.923080   66.923080   66.923080   66.923080   66.923080   66.923080   66.923080   66.923080   66.923080   66.923080   66.923080   66.923080   66.923080   66.923080   66.923080   66.923080   66.923080   66.923080   66.923080   66.923080   66.923080   66.923080   66.923080   66.923080   66.923080   66.923080   66.923080   66.923080   66.923080   66.923080   66.923080   66.923080   66.923080   66.923080   66.923080   66.923080   66.923080   66.923080   66.923080   66.923080   66.923080   66.923080   66.923080   66.923080   66.923080   66.923080   66.923080   66.923080   66.923080   66.923080   66.923080   66.923080   66.923080   66.923080   66.923080   66.923080   66.923080   66.923080   66.923080   66.923080   66.923080
75.961540   75.961540   75.961540   75.961540   75.961540   75.961540   75.961540   75.961540   75.961540   75.961540   75.961540   75.961540   75.961540   75.961540   75.961540   75.961494   75.961258   75.960762   75.959412   75.955940   75.947540   75.928513   75.888100   75.808090   75.660599   75.408218   75.008347   74.423271   73.634415   72.656334   71.542900   70.380180   69.266747   68.288666   67.499809   66.914734   66.514862   66.262482   66.114990   66.034981   65.994576   65.975540   65.967140   65.963661   65.962318   65.961823   65.961586   65.961540   65.961540   65.961540   65.961540   65.961540   65.961540   65.961540   65.961540   65.961540   65.961540   65.961540   65.961540   65.961540   65.961540   65.961540   65.961540   65.961540   65.961540   65.961540   65.961540   65.961540   65.961540   65.961540   65.961540   65.961540   65.961540   65.961540   65.961540   65.961540   65.961540   65.961540   65.961540   65.961540   65.961540   65.961540   65.961540   65.961540   65.961540   65.961540   65.961540   65.961540   65.961540   65.961540   65.961540   65.961540   65.961540   65.961540   65.961540   65.961540   65.961540   65.961540   65.961540   65.961540   65.961540   65.961540   65.961540   65.961540   65.961540   65.961540   65.961540   65.961540   65.961540   65.961540   65.961540   65.961540   65.961540   65.961540   65.961540   65.961540   65.961540   65.961540   65.961540   65.961540   65.961540   65.961540   65.961540   65.961540   65.961540   65.961540   65.961540   65.961540   65.961540   65.961540   65.961540   65.961540   65.961540   65.961540   65.961540   65.961540   65.961540   65.961540   65.961540   65.961540   65.961540   65.961540   65.961540   65.961540   65.961540   65.961540   65.961540   65.961540   65.961540   65.961540   65.961540   65.961540   65.961540
75.000000   75.000000   75.000000   75.000000   75.000000   75.000000   75.000000   75.000000   75.000000   75.000000   75.000000   75.000000   75.000000   75.000000   75.000000   74.999954   74.999718   74.999222   74.997879   74.994400   74.986000   74.966972   74.926559   74.846550   74.699059   74.446678   74.046806   73.461731   72.672874   71.694794   70.581360   69.418640   68.305206   67.327126   66.538269   65.953194   65.553322   65.300941   65.153450   65.073448   65.033035   65.014008   65.005608   65.002129   65.000778   65.000282   65.000046   65.000000   65.000000   65.000000   65.000000   65.000000   65.000000   65.000000   65.000000   65.000000   65.000000   65.000000   65.000000   65.000000   65.000000   65.000000   65.000000   65.000000   65.000000   65.000000   65.000000   65.000000   65.000000   65.000000   65.000000   65.000000   65.000000   65.000000   65.000000   65.000000   65.000000   65.000000   65.000000   65.000000   65.000000   65.000000   65.000000   65.000000   65.000000   65.000000   65.000000   65.000000   65.000000   65.000000   65.000000   65.000000   65.000000   65.000000   65.000000   65.000000   65.000000   65.000000   65.000000   65.000000   65.000000   65.000000   65.000000   65.000000   65.000000   65.000000   65.000000   65.000000   65.000000   65.000000   65.000000   65.000000   65.000000   65.000000   65.000000   65.000000   65.000000   65.000000   65.000000   65.000000   65.000000   65.000000   65.000000   65.000000   65.000000   65.000000   65.000000   65.000000   65.000000   65.000000   65.000000   65.000000   65.000000   65.000000   65.000000   65.000000   65.000000   65.000000   65.000000   65.000000   65.000000   65.000000   65.000000   65.000000   65.000000   65.000000   65.000000   65.000000   65.000000   65.000000   65.000000   65.000000   65.000000
74.038460   74.038460   74.038460   74.038460   74.038460   74.038460   74.038460   74.038460   74.038460   74.038460   74.038460   74.038460   74.038460   74.038460   74.038460   74.038414   74.038177   74.037682   74.036339   74.032860   74.024460   74.005432   73.965019   73.885010   73.737518   73.485138   73.085274   72.500198   71.711342   70.733261   69.619820   68.457108   67.343666   66.365585   65.576729   64.991646   64.591774   64.339401   64.191917   64.111916   64.071503   64.052467   64.044067   64.040588   64.039246   64.038750   64.038513   64.038460   64.038460   64.038460   64.038460   64.038460   64.038460   64.038460   64.038460   64.038460   64.038460   64.038460   64.038460   64.038460   64.038460   64.038460   64.038460   64.038460   64.038460   64.038460   64.038460   64.038460   64.038460   64.038460   64.038460   64.038460   64.038460   64.038460   64.038460   64.038460   64.038460   64.038460   64.038460   64.038460   64.038460   64.038460   64.038460   64.038460   64.038460   64.038460   64.038460   64.038460   64.038460   64.038460   64.038460   64.038460   64.038460   64.038460   64.038460   64.038460   64.038460   64.038460   64.038460   64.038460   64.038460   64.038460   64.038460   64.038460   64.038460   64.038460   64.038460   64.038460   64.038460   64.038460   64.038460   64.038460   64.038460   64.038460   64.038460   64.038460   64.038460   64.038460   64.038460   64.038460   64.038460   64.038460   64.038460   64.038460   64.038460   64.038460   64.038460   64.038460   64.038460   64.038460   64.038460   64.038460   64.038460   64.038460   64.038460   64.038460   64.038460   64.038460   64.038460   64.038460   64.038460   64.038460   64.038460   64.038460   64.038460   64.038460   64.038460   64.038460   64.038460   64.038460   64.038460   64.038460   64.038460
73.076920   73.076920   73.076920   73.076920   73.076920   73.076920   73.076920   73.076920   73.076920   73.076920   73.076920   73.076920   73.076920   73.076920   73.076920   73.076874   73.076637   73.076141   73.074799   73.071320   73.062920   73.043892   73.003479   72.923477   72.775986   72.523605   72.123734   71.538658   70.749802   69.771721   68.658279   67.495560   66.382126   65.404045   64.615181   64.030098   63.630234   63.377861   63.230389   63.150379   63.109962   63.090931   63.082523   63.079048   63.077690   63.077190   63.076996   63.076920   63.076920   63.076920   63.076920   63.076920   63.076920   63.076920   63.076920   63.076920   63.076920   63.076920   63.076920   63.076920   63.076920   63.076920   63.076920   63.076920   63.076920   63.076920   63.076920   63.076920   63.076920   63.076920   63.076920   63.076920   63.076920   63.076920   63.076920   63.076920   63.076920   63.076920   63.076920   63.076920   63.076920   63.076920   63.076920   63.076920   63.076920   63.076920   63.076920   63.076920   63.076920   63.076920   63.076920   63.076920   63.076920   63.076920   63.076920   63.076920   63.076920   63.076920   63.076920   63.076920   63.076920   63.076920   63.076920   63.076920   63.076920   63.076920   63.076920   63.076920   63.076920   63.076920   63.076920   63.076920   63.076920   63.076920   63.076920   63.076920   63.076920   63.076920   63.076920   63.076920   63.076920   63.076920   63.076920   63.076920   63.076920   63.076920   63.076920   63.076920   63.076920   63.076920   63.076920   63.076920   63.076920   63.076920   63.076920   63.076920   63.076920   63.076920   63.076920   63.076920   63.076920   63.076920   63.076920   63.076920   63.076920   63.076920   63.076920   63.076920   63.076920   63.076920   63.076920   63.076920   63.076920
72.115387   72.115387   72.115387   72.115387   72.115387   72.115387   72.115387   72.115387   72.115387   72.115387   72.115387   72.115387   72.115387   72.115387   72.115387   72.115341   72.115105   72.114609   72.113258   72.109779   72.101387   72.082359   72.041946   71.961937   71.814445   71.562065   71.162193   70.577118   69.788261   68.810181   67.696739   66.534019   65.420578   64.442497   63.653633   63.068527   62.668690   62.416317   62.268845   62.188835   62.148426   62.129391   62.120983   62.117504   62.116146   62.115646   62.115463   62.115387   62.115387   62.115387   62.115387   62.115387   62.115387   62.115387   62.115387   62.115387   62.115387   62.115387   62.115387   62.115387   62.115387   62.115387   62.115387   62.115387   62.115387   62.115387   62.115387   62.115387   62.115387   62.115387   62.115387   62.115387   62.115387   62.115387   62.115387   62.115387   62.115387   62.115387   62.115387   62.115387   62.115387   62.115387   62.115387   62.115387   62.115387   62.115387   62.115387   62.115387   62.115387   62.115387   62.115387   62.115387   62.115387   62.115387   62.115387   62.115387   62.115387   62.115387   62.115387   62.115387   62.115387   62.115387   62.115387   62.115387   62.115387   62.115387   62.115387   62.115387   62.115387   62.115387   62.115387   62.115387   62.115387   62.115387   62.115387   62.115387   62.115387   62.115387   62.115387   62.115387   62.115387   62.115387   62.115387   62.115387   62.115387   62.115387   62.115387   62.115387   62.115387   62.115387   62.115387   62.115387   62.115387   62.115387   62.115387   62.115387   62.115387   62.115387   62.115387   62.115387   62.115387   62.115387   62.115387   62.115387   62.115387   62.115387   62.115387   62.115387   62.115387   62.115387   62.115387   62.115387   62.115387
71.153847   71.153847   71.153847   71.153847   71.153847   71.153847   71.153847   71.153847   71.153847   71.153847   71.153847   71.153847   71.153847   71.153847   71.153847   71.153801   71.153564   71.153069   71.151718   71.148247   71.139847   71.120819   71.080406   71.000397   70.852905   70.600525   70.200653   69.615578   68.826721   67.848640   66.735199   65.572479   64.459038   63.480961   62.692089   62.106979   61.707146   61.454777   61.307304   61.227295   61.186886   61.167850   61.159443   61.155964   61.154606   61.154110   61.153927   61.153847   61.153847   61.153847   61.153847   61.153847   61.153847   61.153847   61.153847   61.153847   61.153847   61.153847   61.153847   61.153847   61.153847   61.153847   61.153847   61.153847   61.153847   61.153847   61.153847   61.153847   61.153847   61.153847   61.153847   61.153847   61.153847   61.153847   61.153847   61.153847   61.153847   61.153847   61.153847   61.153847   61.153847   61.153847   61.153847   61.153847   61.153847   61.153847   61.153847   61.153847   61.153847   61.153847   61.153847   61.153847   61.153847   61.153847   61.153847   61.153847   61.153847   61.153847   61.153847   61.153847   61.153847   61.153847   61.153847   61.153847   61.153847   61.153847   61.153847   61.153847   61.153847   61.153847   61.153847   61.153847   61.153847   61.153847   61.153847   61.153847   61.153847   61.153847   61.153847   61.153847   61.153847   61.153847   61.153847   61.153847   61.153847   61.153847   61.153847   61.153847   61.153847   61.153847   61.153847   61.153847   61.153847   61.153847   61.153847   61.153847   61.153847   61.153847   61.153847   61.153847   61.153847   61.153847   61.153847   61.153847   61.153847   61.153847   61.153847   61.153847   61.153847   61.153847   61.153847   61.153847   61.153847
70.192307   70.192307   70.192307   70.192307   70.192307   70.192307   70.192307   70.192307   70.192307   70.192307   70.192307   70.192307   70.192307   70.192307   70.192307   70.192261   70.192024   70.191528   70.190186   70.186707   70.178307   70.159279   70.118866   70.038857   69.891365   69.638992   69.239120   68.654037   67.865181   66.887100   65.773659   64.610931   63.497494   62.519417   61.730549   61.145439   60.745605   60.493237   60.345764   60.265755   60.225346   60.206310   60.197903   60.194424   60.193069   60.192570   60.192387   60.192307   60.192307   60.192307   60.192307   60.192307   60.192307   60.192307   60.192307   60.192307   60.192307   60.192307   60.192307   60.192307   60.192307   60.192307   60.192307   60.192307   60.192307   60.192307   60.192307   60.192307   60.192307   60.192307   60.192307   60.192307   60.192307   60.192307   60.192307   60.192307   60.192307   60.192307   60.192307   60.192307   60.192307   60.192307   60.192307   60.192307   60.192307   60.192307   60.192307   60.192307   60.192307   60.192307   60.192307   60.192307   60.192307   60.192307   60.192307   60.192307   60.192307   60.192307   60.192307   60.192307   60.192307   60.192307   60.192307   60.192307   60.192307   60.192307   60.192307   60.192307   60.192307   60.192307   60.192307   60.192307   60.192307   60.192307   60.192307   60.192307   60.192307   60.192307   60.192307   60.192307   60.192307   60.192307   60.192307   60.192307   60.192307   60.192307   60.192307   60.192307   60.192307   60.192307   60.192307   60.192307   60.192307   60.192307   60.192307   60.192307   60.192307   60.192307   60.192307   60.192307   60.192307   60.192307   60.192307   60.192307   60.192307   60.192307   60.192307   60.192307   60.192307   60.192307   60.192307   60.192307   60.192307
69.230766   69.230766   69.230766   69.230766   69.230766   69.230766   69.230766   69.230766   69.230766   69.230766   69.230766   69.230766   69.230766   69.230766   69.230766   69.230721   69.230484   69.229988   69.228645   69.225166   69.216766   69.197739   69.157326   69.077324   68.929832   68.677452   68.277580   67.692505   66.903641   65.925560   64.812119   63.649387   62.535950   61.557877   60.769009   60.183899   59.784065   59.531696   59.384228   59.304218   59.263809   59.244770   59.236362   59.232883   59.231529   59.231033   59.230850   59.230766   59.230766   59.230766   59.230766   59.230766   59.230766   59.230766   59.230766   59.230766   59.230766   59.230766   59.230766   59.230766   59.230766   59.230766   59.230766   59.230766   59.230766   59.230766   59.230766   59.230766   59.230766   59.230766   59.230766   59.230766   59.230766   59.230766   59.230766   59.230766   59.230766   59.230766   59.230766   59.230766   59.230766   59.230766   59.230766   59.230766   59.230766   59.230766   59.230766   59.230766   59.230766   59.230766   59.230766   59.230766   59.230766   59.230766   59.230766   59.230766   59.230766   59.230766   59.230766   59.230766   59.230766   59.230766   59.230766   59.230766   59.230766   59.230766   59.230766   59.230766   59.230766   59.230766   59.230766   59.230766   59.230766   59.230766   59.230766   59.230766   59.230766   59.230766   59.230766   59.230766   59.230766   59.230766   59.230766   59.230766   59.230766   59.230766   59.230766   59.230766   59.230766   59.230766   59.230766   59.230766   59.230766   59.230766   59.230766   59.230766   59.230766   59.230766   59.230766   59.230766   59.230766   59.230766   59.230766   59.230766   59.230766   59.230766   59.230766   59.230766   59.230766   59.230766   59.230766   59.230766   59.230766
68.269234   68.269234   68.269234   68.269234   68.269234   68.269234   68.269234   68.269234   68.269234   68.269234   68.269234   68.269234   68.269234   68.269234   68.269234   68.269188   68.268951   68.268456   68.267105   68.263626   68.255234   68.236206   68.195793   68.115784   67.968292   67.715912   67.316040   66.730965   65.942108   64.964020   63.850582   62.687851   61.574413   60.596336   59.807468   59.222363   58.822529   58.570160   58.422688   58.342682   58.302269   58.283234   58.274826   58.271347   58.269993   58.269497   58.269314   58.269234   58.269234   58.269234   58.269234   58.269234   58.269234   58.269234   58.269234   58.269234   58.269234   58.269234   58.269234   58.269234   58.269234   58.269234   58.269234   58.269234   58.269234   58.269234   58.269234   58.269234   58.269234   58.269234   58.269234   58.269234   58.269234   58.269234   58.269234   58.269234   58.269234   58.269234   58.269234   58.269234   58.269234   58.269234   58.269234   58.269234   58.269234   58.269234   58.269234   58.269234   58.269234   58.269234   58.269234   58.269234   58.269234   58.269234   58.269234   58.269234   58.269234   58.269234   58.269234   58.269234   58.269234   58.269234   58.269234   58.269234   58.269234   58.269234   58.269234   58.269234   58.269234   58.269234   58.269234   58.269234   58.269234   58.269234   58.269234   58.269234   58.269234   58.269234   58.269234   58.269234   58.269234   58.269234   58.269234   58.269234   58.269234   58.269234   58.269234   58.269234   58.269234   58.269234   58.269234   58.269234   58.269234   58.269234   58.269234   58.269234   58.269234   58.269234   58.269234   58.269234   58.269234   58.269234   58.269234   58.269234   58.269234   58.269234   58.269234   58.269234   58.269234   58.269234   58.269234   58.269234   58.269234
67.307693   67.307693   67.307693   67.307693   67.307693   67.307693   67.307693   67.307693   67.307693   67.307693   67.307693   67.307693   67.307693   67.307693   67.307693   67.307648   67.307411   67.306915   67.305565   67.302094   67.293694   67.274666   67.234253   67.154243   67.006752   66.754379   66.354507   65.769432   64.980576   64.002487   62.889050   61.726315   60.612877   59.634800   58.845932   58.260826   57.860989   57.608620   57.461151   57.381145   57.340733   57.321693   57.313286   57.309811   57.308456   57.307961   57.307777   57.307693   57.307693   57.307693   57.307693   57.307693   57.307693   57.307693   57.307693   57.307693   57.307693   57.307693   57.307693   57.307693   57.307693   57.307693   57.307693   57.307693   57.307693   57.307693   57.307693   57.307693   57.307693   57.307693   57.307693   57.307693   57.307693   57.307693   57.307693   57.307693   57.307693   57.307693   57.307693   57.307693   57.307693   57.307693   57.307693   57.307693   57.307693   57.307693   57.307693   57.307693   57.307693   57.307693   57.307693   57.307693   57.307693   57.307693   57.307693   57.307693   57.307693   57.307693   57.307693   57.307693   57.307693   57.307693   57.307693   57.307693   57.307693   57.307693   57.307693   57.307693   57.307693   57.307693   57.307693   57.307693   57.307693   57.307693   57.307693   57.307693   57.307693   57.307693   57.307693   57.307693   57.307693   57.307693   57.307693   57.307693   57.307693   57.307693   57.307693   57.307693   57.307693   57.307693   57.307693   57.307693   57.307693   57.307693   57.307693   57.307693   57.307693   57.307693   57.307693   57.307693   57.307693   57.307693   57.307693   57.307693   57.307693   57.307693   57.307693   57.307693   57.307693   57.307693   57.307693   57.307693   57.307693
66.346153   66.346153   66.346153   66.346153   66.346153   66.346153   66.346153   66.346153   66.346153   66.346153   66.346153   66.346153   66.346153   66.346153   66.346153   66.346115   66.345871   66.345375   66.344032   66.340553   66.332153   66.313126   66.272713   66.192711   66.045219   65.792847   65.392982   64.807892   64.019043   63.040966   61.927521   60.764786   59.651344   58.673267   57.884399   57.299294   56.899456   56.647087   56.499619   56.419613   56.379200   56.360161   56.351753   56.348278   56.346924   56.346432   56.346249   56.346161   56.346153   56.346153   56.346153   56.346153   56.346153   56.346153   56.346153   56.346153   56.346153   56.346153   56.346153   56.346153   56.346153   56.346153   56.346153   56.346153   56.346153   56.346153   56.346153   56.346153   56.346153   56.346153   56.346153   56.346153   56.346153   56.346153   56.346153   56.346153   56.346153   56.346153   56.346153   56.346153   56.346153   56.346153   56.346153   56.346153   56.346153   56.346153   56.346153   56.346153   56.346153   56.346153   56.346153   56.346153   56.346153   56.346153   56.346153   56.346153   56.346153   56.346153   56.346153   56.346153   56.346153   56.346153   56.346153   56.346153   56.346153   56.346153   56.346153   56.346153   56.346153   56.346153   56.346153   56.346153   56.346153   56.346153   56.346153   56.346153   56.346153   56.346153   56.346153   56.346153   56.346153   56.346153   56.346153   56.346153   56.346153   56.346153   56.346153   56.346153   56.346153   56.346153   56.346153   56.346153   56.346153   56.346153   56.346153   56.346153   56.346153   56.346153   56.346153   56.346153   56.346153   56.346153   56.346153   56.346153   56.346153   56.346153   56.346153   56.346153   56.346153   56.346153   56.346153   56.346153   56.346153
65.384613   65.384613   65.384613   65.384613   65.384613   65.384613   65.384613   65.384613   65.384613   65.384613   65.384613   65.384613   65.384613   65.384613   65.384613   65.384583   65.384338   65.383842   65.382500   65.379021   65.370628   65.351585   65.311180   65.231178   65.083694   64.831322   64.431465   63.846371   63.057514   62.079445   60.966000   59.803257   58.689816   57.711742   56.922874   56.337772   55.937931   55.685566   55.538097   55.458092   55.417679   55.398628   55.390228   55.386757   55.385406   55.384914   55.384731   55.384644   55.384613   55.384613   55.384613   55.384613   55.384613   55.384613   55.384613   55.384613   55.384613   55.384613   55.384613   55.384613   55.384613   55.384613   55.384613   55.384613   55.384613   55.384613   55.384613   55.384613   55.384613   55.384613   55.384613   55.384613   55.384613   55.384613   55.384613   55.384613   55.384613   55.384613   55.384613   55.384613   55.384613   55.384613   55.384613   55.384613   55.384613   55.384613   55.384613   55.384613   55.384613   55.384613   55.384613   55.384613   55.384613   55.384613   55.384613   55.384613   55.384613   55.384613   55.384613   55.384613   55.384613   55.384613   55.384613   55.384613   55.384613   55.384613   55.384613   55.384613   55.384613   55.384613   55.384613   55.384613   55.384613   55.384613   55.384613   55.384613   55.384613   55.384613   55.384613   55.384613   55.384613   55.384613   55.384613   55.384613   55.384613   55.384613   55.384613   55.384613   55.384613   55.384613   55.384613   55.384613   55.384613   55.384613   55.384613   55.384613   55.384613   55.384613   55.384613   55.384613   55.384613   55.384613   55.384613   55.384613   55.384613   55.384613   55.384613   55.384613   55.384613   55.384613   55.384613   55.384613   55.384613
64.423080   64.423080   64.423080   64.423080   64.423080   64.423080   64.423080   64.423080   64.423080   64.423080   64.423080   64.423080   64.423080   64.423080   64.423080   64.423073   64.422836   64.422333   64.420990   64.417519   64.409126   64.390083   64.349670   64.269661   64.122192   63.869827   63.469975   62.884880   62.096020   61.117947   60.004505   58.841755   57.728310   56.750240   55.961380   55.376286   54.976433   54.724068   54.576595   54.496593   54.456181   54.437138   54.428730   54.425259   54.423916   54.423424   54.423241   54.423172   54.423138   54.423130   54.423126   54.423126   54.423126   54.423126   54.423126   54.423126   54.423126   54.423126   54.423126   54.423126   54.423126   54.423126   54.423126   54.423126   54.423126   54.423126   54.423126   54.423126   54.423126   54.423126   54.423126   54.423126   54.423126   54.423126   54.423126   54.423126   54.423126   54.423126   54.423126   54.423126   54.423126   54.423126   54.423126   54.423126   54.423126   54.423126   54.423126   54.423126   54.423126   54.423126   54.423126   54.423126   54.423126   54.423126   54.423126   54.423126   54.423126   54.423126   54.423126   54.423126   54.423126   54.423126   54.423126   54.423126   54.423126   54.423126   54.423126   54.423126   54.423126   54.423126   54.423126   54.423126   54.423126   54.423126   54.423126   54.423126   54.423126   54.423126   54.423126   54.423126   54.423126   54.423126   54.423126   54.423126   54.423126   54.423126   54.423126   54.423126   54.423126   54.423126   54.423126   54.423126   54.423126   54.423126   54.423126   54.423126   54.423126   54.423126   54.423126   54.423126   54.423126   54.423126   54.423126   54.423126   54.423126   54.423126   54.423126   54.423126   54.423126   54.423126   54.423126   54.423126   54.423126
63.461700   63.461700   63.461700   63.461700   63.461700   63.461700   63.461700   63.461700   63.461700   63.461700   63.461700   63.461697   63.461697   63.461689   63.461666   63.461601   63.461407   63.460911   63.459553   63.456081   63.447689   63.428638   63.388222   63.308216   63.160748   62.908382   62.508545   61.923443   61.134583   60.156513   59.043072   57.880325   56.766884   55.788811   54.999950   54.414852   54.015007   53.762642   53.615173   53.535172   53.494755   53.475712   53.467312   53.463844   53.462494   53.462006   53.461830   53.461758   53.461742   53.461739   53.461739   53.461739   53.461739   53.461739   53.461739   53.461739   53.461739   53.461739   53.461739   53.461739   53.461739   53.461739   53.461739   53.461739   53.461739   53.461739   53.461739   53.461739   53.461739   53.461739   53.461739   53.461739   53.461739   53.461739   53.461739   53.461739   53.461739   53.461739   53.461739   53.461739   53.461739   53.461739   53.461739   53.461739   53.461739   53.461739   53.461739   53.461739   53.461739   53.461739   53.461739   53.461739   53.461739   53.461739   53.461739   53.461739   53.461739   53.461739   53.461739   53.461739   53.461739   53.461739   53.461739   53.461739   53.461739   53.461739   53.461739   53.461739   53.461739   53.461739   53.461739   53.461739   53.461739   53.461739   53.461739   53.461739   53.461739   53.461739   53.461739   53.461739   53.461739   53.461739   53.461739   53.461739   53.461739   53.461739   53.461739   53.461739   53.461739   53.461739   53.461739   53.461739   53.461739   53.461739   53.461739   53.461739   53.461739   53.461739   53.461739   53.461739   53.461739   53.461739   53.461739   53.461739   53.461739   53.461739   53.461739   53.461739   53.461739   53.461739   53.461739   53.461739   53.461739
62.500423   62.500423   62.500423   62.500423   62.500423   62.500423   62.500423   62.500423   62.500423   62.500423   62.500423   62.500420   62.500420   62.500416   62.500404   62.500351   62.500168   62.499649   62.498291   62.494812   62.486416   62.467369   62.426971   62.346962   62.199486   61.947128   61.547279   60.962189   60.173328   59.195259   58.081825   56.919094   55.805653   54.827587   54.038734   53.453659   53.053795   52.801430   52.653957   52.573952   52.533546   52.514503   52.506104   52.502632   52.501286   52.500790   52.500614   52.500561   52.500542   52.500534   52.500530   52.500530   52.500530   52.500530   52.500530   52.500530   52.500530   52.500530   52.500530   52.500530   52.500530   52.500530   52.500530   52.500530   52.500530   52.500530   52.500530   52.500530   52.500530   52.500530   52.500530   52.500530   52.500530   52.500530   52.500530   52.500530   52.500530   52.500530   52.500530   52.500530   52.500530   52.500530   52.500530   52.500530   52.500530   52.500530   52.500530   52.500530   52.500530   52.500530   52.500530   52.500530   52.500530   52.500530   52.500530   52.500530   52.500530   52.500530   52.500530   52.500530   52.500530   52.500530   52.500530   52.500530   52.500530   52.500530   52.500530   52.500530   52.500530   52.500530   52.500530   52.500530   52.500530   52.500530   52.500530   52.500530   52.500530   52.500530   52.500530   52.500530   52.500530   52.500530   52.500530   52.500530   52.500530   52.500530   52.500530   52.500530   52.500530   52.500530   52.500530   52.500530   52.500530   52.500530   52.500530   52.500530   52.500530   52.500530   52.500530   52.500530   52.500530   52.500530   52.500530   52.500530   52.500530   52.500530   52.500530   52.500530   52.500530   52.500530   52.500530   52.500530   52.500530
61.539616   61.539616   61.539616   61.539616   61.539616   61.539616   61.539616   61.539616   61.539616   61.539616   61.539616   61.539612   61.539612   61.539608   61.539593   61.539536   61.539364   61.538845   61.537487   61.534008   61.525604   61.506557   61.466156   61.386143   61.238678   60.986320   60.586483   60.001396   59.212547   58.234497   57.121078   55.958355   54.844933   53.866886   53.078037   52.492966   52.093117   51.840755   51.693283   51.613277   51.572868   51.553829   51.545429   51.541954   51.540607   51.540112   51.539940   51.539879   51.539860   51.539852   51.539848   51.539848   51.539848   51.539848   51.539848   51.539848   51.539848   51.539848   51.539848   51.539848   51.539848   51.539848   51.539848   51.539848   51.539848   51.539848   51.539848   51.539848   51.539848   51.539848   51.539848   51.539848   51.539848   51.539848   51.539848   51.539848   51.539848   51.539848   51.539848   51.539848   51.539848   51.539848   51.539848   51.539848   51.539848   51.539848   51.539848   51.539848   51.539848   51.539848   51.539848   51.539848   51.539848   51.539848   51.539848   51.539848   51.539848   51.539848   51.539848   51.539848   51.539848   51.539848   51.539848   51.539848   51.539848   51.539848   51.539848   51.539848   51.539848   51.539848   51.539848   51.539848   51.539848   51.539848   51.539848   51.539848   51.539848   51.539848   51.539848   51.539848   51.539848   51.539848   51.539848   51.539848   51.539848   51.539848   51.539848   51.539848   51.539848   51.539848   51.539848   51.539848   51.539848   51.539848   51.539848   51.539848   51.539848   51.539848   51.539848   51.539848   51.539848   51.539848   51.539848   51.539848   51.539848   51.539848   51.539848   51.539848   51.539848   51.539848   51.539848   51.539848   51.539848
60.579922   60.579922   60.579922   60.579922   60.579922   60.579922   60.579922   60.579922   60.579922   60.579922   60.579922   60.579922   60.579918   60.579914   60.579899   60.579845   60.579674   60.579174   60.577812   60.574329   60.565922   60.546875   60.506474   60.426468   60.278999   60.026649   59.626820   59.041756   58.252934   57.274918   56.161526   54.998840   53.885452   52.907436   52.118610   51.533550   51.133720   50.881367   50.733902   50.653900   50.613491   50.594448   50.586048   50.582573   50.581223   50.580727   50.580555   50.580494   50.580475   50.580471   50.580467   50.580467   50.580467   50.580467   50.580467   50.580467   50.580467   50.580467   50.580467   50.580467   50.580467   50.580467   50.580467   50.580467   50.580467   50.580467   50.580467   50.580467   50.580467   50.580467   50.580467   50.580467   50.580467   50.580467   50.580467   50.580467   50.580467   50.580467   50.580467   50.580467   50.580467   50.580467   50.580467   50.580467   50.580467   50.580467   50.580467   50.580467   50.580467   50.580467   50.580467   50.580467   50.580467   50.580467   50.580467   50.580467   50.580467   50.580467   50.580467   50.580467   50.580467   50.580467   50.580467   50.580467   50.580467   50.580467   50.580467   50.580467   50.580467   50.580467   50.580467   50.580467   50.580467   50.580467   50.580467   50.580467   50.580467   50.580467   50.580467   50.580467   50.580467   50.580467   50.580467   50.580467   50.580467   50.580467   50.580467   50.580467   50.580467   50.580467   50.580467   50.580467   50.580467   50.580467   50.580467   50.580467   50.580467   50.580467   50.580467   50.580467   50.580467   50.580467   50.580467   50.580467   50.580467   50.580467   50.580467   50.580467   50.580467   50.580467   50.580467   50.580467   50.580467
59.622837   59.622837   59.622837   59.622837   59.622837   59.622837   59.622837   59.622837   59.622837   59.622837   59.622837   59.622837   59.622837   59.622829   59.622814   59.622761   59.622585   59.622093   59.620735   59.617268   59.608845   59.589794   59.549400   59.469398   59.321938   59.069611   58.669804   58.084774   57.296001   56.318050   55.204727   54.042118   52.928802   51.950851   51.162079   50.577053   50.177242   49.924904   49.777451   49.697453   49.657051   49.638004   49.629604   49.626125   49.624775   49.624271   49.624104   49.624046   49.624027   49.624020   49.624020   49.624020   49.624020   49.624020   49.624020   49.624020   49.624020   49.624020   49.624020   49.624020   49.624020   49.624020   49.624020   49.624020   49.624020   49.624020   49.624020   49.624020   49.624020   49.624020   49.624020   49.624020   49.624020   49.624020   49.624020   49.624020   49.624020   49.624020   49.624020   49.624020   49.624020   49.624020   49.624020   49.624020   49.624020   49.624020   49.624020   49.624020   49.624020   49.624020   49.624020   49.624020   49.624020   49.624020   49.624020   49.624020   49.624020   49.624020   49.624020   49.624020   49.624020   49.624020   49.624020   49.624020   49.624020   49.624020   49.624020   49.624020   49.624020   49.624020   49.624020   49.624020   49.624020   49.624020   49.624020   49.624020   49.624020   49.624020   49.624020   49.624020   49.624020   49.624020   49.624020   49.624020   49.624020   49.624020   49.624020   49.624020   49.624020   49.624020   49.624020   49.624020   49.624020   49.624020   49.624020   49.624020   49.624020   49.624020   49.624020   49.624020   49.624020   49.624020   49.624020   49.624020   49.624020   49.624020   49.624020   49.624020   49.624020   49.624020   49.624020   49.624020   49.624020
58.671417   58.671417   58.671417   58.671417   58.671417   58.671417   58.671417   58.671417   58.671417   58.671417   58.671417   58.671417   58.671417   58.671410   58.671394   58.671333   58.671165   58.670666   58.669315   58.665836   58.657429   58.638382   58.597988   58.518002   58.370560   58.118256   57.718498   57.133553   56.344868   55.367031   54.253849   53.091389   51.978203   51.000366   50.211689   49.626736   49.226986   48.974678   48.827232   48.747246   48.706844   48.687794   48.679394   48.675922   48.674564   48.674061   48.673893   48.673836   48.673820   48.673817   48.673817   48.673817   48.673817   48.673817   48.673813   48.673813   48.673813   48.673813   48.673813   48.673813   48.673813   48.673813   48.673813   48.673813   48.673813   48.673813   48.673813   48.673813   48.673813   48.673813   48.673813   48.673813   48.673813   48.673813   48.673813   48.673813   48.673813   48.673813   48.673813   48.673813   48.673813   48.673813   48.673813   48.673813   48.673813   48.673813   48.673813   48.673813   48.673813   48.673813   48.673813   48.673813   48.673813   48.673813   48.673813   48.673813   48.673813   48.673813   48.673813   48.673813   48.673813   48.673813   48.673813   48.673813   48.673813   48.673813   48.673813   48.673813   48.673813   48.673813   48.673813   48.673813   48.673813   48.673813   48.673813   48.673813   48.673813   48.673813   48.673813   48.673813   48.673813   48.673813   48.673813   48.673813   48.673813   48.673813   48.673813   48.673813   48.673813   48.673813   48.673813   48.673813   48.673813   48.673813   48.673813   48.673813   48.673813   48.673813   48.673813   48.673813   48.673813   48.673813   48.673813   48.673813   48.673813   48.673813   48.673813   48.673813   48.673813   48.673813   48.673813   48.673813   48.673813
57.731491   57.731491   57.731491   57.731491   57.731491   57.731491   57.731491   57.731491   57.731491   57.731491   57.731491   57.731491   57.731487   57.731483   57.731461   57.731403   57.731232   57.730736   57.729382   57.725906   57.717503   57.698463   57.658077   57.578106   57.430695   57.178448   56.778778   56.193951   55.405441   54.427814   53.314877   52.152657   51.039711   50.062080   49.273575   48.688740   48.289070   48.036819   47.889404   47.809437   47.769043   47.750000   47.741600   47.738121   47.736771   47.736271   47.736099   47.736042   47.736027   47.736027   47.736027   47.736027   47.736027   47.736027   47.736023   47.736023   47.736023   47.736023   47.736023   47.736023   47.736023   47.736023   47.736023   47.736023   47.736023   47.736023   47.736023   47.736023   47.736023   47.736023   47.736023   47.736023   47.736023   47.736023   47.736023   47.736023   47.736023   47.736023   47.736023   47.736023   47.736023   47.736023   47.736023   47.736023   47.736023   47.736023   47.736023   47.736023   47.736023   47.736023   47.736023   47.736023   47.736023   47.736023   47.736023   47.736023   47.736023   47.736023   47.736023   47.736023   47.736023   47.736023   47.736023   47.736023   47.736023   47.736023   47.736023   47.736023   47.736023   47.736023   47.736023   47.736023   47.736023   47.736023   47.736023   47.736023   47.736023   47.736023   47.736023   47.736023   47.736023   47.736023   47.736023   47.736023   47.736023   47.736023   47.736023   47.736023   47.736023   47.736023   47.736023   47.736023   47.736023   47.736023   47.736023   47.736023   47.736023   47.736023   47.736023   47.736023   47.736023   47.736023   47.736023   47.736023   47.736023   47.736023   47.736023   47.736023   47.736023   47.736023   47.736023   47.736023   47.736023
56.813309   56.813309   56.813309   56.813309   56.813309   56.813309   56.813309   56.813309   56.813309   56.813309   56.813309   56.813309   56.813309   56.813301   56.813282   56.813225   56.813049   56.812557   56.811203   56.807724   56.799332   56.780308   56.739925   56.659981   56.512623   56.260460   55.860924   55.276299   54.488064   53.510769   52.398212   51.236393   50.123840   49.146549   48.358315   47.773682   47.374146   47.121975   46.974609   46.894669   46.854294   46.835258   46.826866   46.823380   46.822029   46.821533   46.821365   46.821316   46.821293   46.821289   46.821285   46.821285   46.821285   46.821285   46.821281   46.821281   46.821281   46.821281   46.821281   46.821281   46.821281   46.821281   46.821281   46.821281   46.821281   46.821281   46.821281   46.821281   46.821281   46.821281   46.821281   46.821281   46.821281   46.821281   46.821281   46.821281   46.821281   46.821281   46.821281   46.821281   46.821281   46.821281   46.821281   46.821281   46.821281   46.821281   46.821281   46.821281   46.821281   46.821281   46.821281   46.821281   46.821281   46.821281   46.821281   46.821281   46.821281   46.821281   46.821281   46.821281   46.821281   46.821281   46.821281   46.821281   46.821281   46.821281   46.821281   46.821281   46.821281   46.821281   46.821281   46.821281   46.821281   46.821281   46.821281   46.821281   46.821281   46.821281   46.821281   46.821281   46.821281   46.821281   46.821281   46.821281   46.821281   46.821281   46.821281   46.821281   46.821281   46.821281   46.821281   46.821281   46.821281   46.821281   46.821281   46.821281   46.821281   46.821281   46.821281   46.821281   46.821281   46.821281   46.821281   46.821281   46.821281   46.821281   46.821281   46.821281   46.821281   46.821281   46.821281   46.821281   46.821281
55.933426   55.933426   55.933426   55.933426   55.933426   55.933426   55.933426   55.933426   55.933426   55.933426   55.933426   55.933426   55.933422   55.933414   55.933395   55.933338   55.933163   55.932667   55.931316   55.927845   55.919449   55.900429   55.860069   55.780163   55.632885   55.380852   54.981514   54.397186   53.609344   52.632553   51.520554   50.359325   49.247334   48.270538   47.482700   46.898365   46.499031   46.246986   46.099693   46.019794   45.979443   45.960415   45.952023   45.948540   45.947189   45.946697   45.946529   45.946476   45.946461   45.946457   45.946457   45.946457   45.946457   45.946453   45.946453   45.946453   45.946453   45.946453   45.946453   45.946453   45.946453   45.946453   45.946453   45.946453   45.946453   45.946453   45.946453   45.946453   45.946453   45.946453   45.946453   45.946453   45.946453   45.946453   45.946453   45.946453   45.946453   45.946453   45.946453   45.946453   45.946453   45.946453   45.946453   45.946453   45.946453   45.946453   45.946453   45.946453   45.946453   45.946453   45.946453   45.946453   45.946453   45.946453   45.946453   45.946453   45.946453   45.946453   45.946453   45.946453   45.946453   45.946453   45.946453   45.946453   45.946453   45.946453   45.946453   45.946453   45.946453   45.946453   45.946453   45.946453   45.946453   45.946453   45.946453   45.946453   45.946453   45.946453   45.946453   45.946453   45.946453   45.946453   45.946453   45.946453   45.946453   45.946453   45.946453   45.946453   45.946453   45.946453   45.946453   45.946453   45.946453   45.946453   45.946453   45.946453   45.946453   45.946453   45.946453   45.946453   45.946453   45.946453   45.946453   45.946453   45.946453   45.946453   45.946453   45.946453   45.946453   45.946453   45.946453   45.946453   45.946453
55.116100   55.116100   55.116100   55.116100   55.116100   55.116100   55.116100   55.116100   55.116100   55.116100   55.116100   55.116100   55.116096   55.116093   55.116074   55.116013   55.115841   55.115341   55.113991   55.110519   55.102135   55.083122   55.042793   54.962936   54.815742   54.563885   54.164825   53.580887   52.793575   51.817432   50.706173   49.545723   48.434467   47.458324   46.671005   46.087070   45.688000   45.436127   45.288937   45.209087   45.168755   45.149746   45.141354   45.137878   45.136532   45.136036   45.135868   45.135815   45.135796   45.135792   45.135792   45.135792   45.135792   45.135792   45.135788   45.135788   45.135788   45.135788   45.135788   45.135788   45.135788   45.135788   45.135788   45.135788   45.135788   45.135788   45.135788   45.135788   45.135788   45.135788   45.135788   45.135788   45.135788   45.135788   45.135788   45.135788   45.135788   45.135788   45.135788   45.135788   45.135788   45.135788   45.135788   45.135788   45.135788   45.135788   45.135788   45.135788   45.135788   45.135788   45.135788   45.135788   45.135788   45.135788   45.135788   45.135788   45.135788   45.135788   45.135788   45.135788   45.135788   45.135788   45.135788   45.135788   45.135788   45.135788   45.135788   45.135788   45.135788   45.135788   45.135788   45.135788   45.135788   45.135788   45.135788   45.135788   45.135788   45.135788   45.135788   45.135788   45.135788   45.135788   45.135788   45.135788   45.135788   45.135788   45.135788   45.135788   45.135788   45.135788   45.135788   45.135788   45.135788   45.135788   45.135788   45.135788   45.135788   45.135788   45.135788   45.135788   45.135788   45.135788   45.135788   45.135788   45.135788   45.135788   45.135788   45.135788   45.135788   45.135788   45.135788   45.135788   45.135788
54.393364   54.393364   54.393364   54.393364   54.393364   54.393364   54.393364   54.393364   54.393364   54.393364   54.393364   54.393364   54.393364   54.393356   54.393341   54.393291   54.393124   54.392616   54.391266   54.387798   54.379414   54.360416   54.320122   54.240337   54.093254   53.841583   53.442841   52.859356   52.072662   51.097279   49.986889   48.827343   47.716961   46.741581   45.954887   45.371399   44.972641   44.720966   44.573898   44.494106   44.453800   44.434807   44.426422   44.422955   44.421604   44.421116   44.420948   44.420883   44.420872   44.420868   44.420868   44.420868   44.420868   44.420868   44.420868   44.420868   44.420868   44.420868   44.420868   44.420868   44.420868   44.420868   44.420868   44.420868   44.420868   44.420868   44.420868   44.420868   44.420868   44.420868   44.420868   44.420868   44.420868   44.420868   44.420868   44.420868   44.420868   44.420868   44.420868   44.420868   44.420868   44.420868   44.420868   44.420868   44.420868   44.420868   44.420868   44.420868   44.420868   44.420868   44.420868   44.420868   44.420868   44.420868   44.420868   44.420868   44.420868   44.420868   44.420868   44.420868   44.420868   44.420868   44.420868   44.420868   44.420868   44.420868   44.420868   44.420868   44.420868   44.420868   44.420868   44.420868   44.420868   44.420868   44.420868   44.420868   44.420868   44.420868   44.420868   44.420868   44.420868   44.420868   44.420868   44.420868   44.420868   44.420868   44.420868   44.420868   44.420868   44.420868   44.420868   44.420868   44.420868   44.420868   44.420868   44.420868   44.420868   44.420868   44.420868   44.420868   44.420868   44.420868   44.420868   44.420868   44.420868   44.420868   44.420868   44.420868   44.420868   44.420868   44.420868   44.420868   44.420868
53.802734   53.802734   53.802734   53.802734   53.802734   53.802734   53.802734   53.802734   53.802734   53.802734   53.802734   53.802734   53.802734   53.802731   53.802715   53.802658   53.802486   53.801994   53.800648   53.797188   53.788799   53.769821   53.729549   53.649818   53.502865   53.251396   52.852959   52.269932   51.483868   50.509251   49.399742   48.241116   47.131618   46.157013   45.370937   44.787907   44.389465   44.137993   43.991039   43.911312   43.871044   43.852058   43.843681   43.840210   43.838863   43.838375   43.838203   43.838146   43.838127   43.838123   43.838123   43.838123   43.838123   43.838123   43.838123   43.838123   43.838123   43.838123   43.838123   43.838123   43.838123   43.838123   43.838123   43.838123   43.838123   43.838123   43.838123   43.838123   43.838123   43.838123   43.838123   43.838123   43.838123   43.838123   43.838123   43.838123   43.838123   43.838123   43.838123   43.838123   43.838123   43.838123   43.838123   43.838123   43.838123   43.838123   43.838123   43.838123   43.838123   43.838123   43.838123   43.838123   43.838123   43.838123   43.838123   43.838123   43.838123   43.838123   43.838123   43.838123   43.838123   43.838123   43.838123   43.838123   43.838123   43.838123   43.838123   43.838123   43.838123   43.838123   43.838123   43.838123   43.838123   43.838123   43.838123   43.838123   43.838123   43.838123   43.838123   43.838123   43.838123   43.838123   43.838123   43.838123   43.838123   43.838123   43.838123   43.838123   43.838123   43.838123   43.838123   43.838123   43.838123   43.838123   43.838123   43.838123   43.838123   43.838123   43.838123   43.838123   43.838123   43.838123   43.838123   43.838123   43.838123   43.838123   43.838123   43.838123   43.838123   43.838123   43.838123   43.838123   43.838123
53.382137   53.382137   53.382137   53.382137   53.382137   53.382137   53.382137   53.382137   53.382137   53.382137   53.382137   53.382137   53.382137   53.382133   53.382114   53.382057   53.381886   53.381393   53.380051   53.376591   53.368214   53.349236   53.308990   53.229317   53.082458   52.831158   52.432983   51.850346   51.064781   50.090813   48.982021   47.824158   46.715382   45.741413   44.955860   44.373207   43.975029   43.723721   43.576862   43.497185   43.456947   43.437977   43.429600   43.426132   43.424782   43.424290   43.424122   43.424068   43.424049   43.424046   43.424046   43.424046   43.424046   43.424046   43.424046   43.424046   43.424046   43.424046   43.424046   43.424046   43.424046   43.424046   43.424046   43.424046   43.424046   43.424046   43.424046   43.424046   43.424046   43.424046   43.424046   43.424046   43.424046   43.424046   43.424046   43.424046   43.424046   43.424046   43.424046   43.424046   43.424046   43.424046   43.424046   43.424046   43.424046   43.424046   43.424046   43.424046   43.424046   43.424046   43.424046   43.424046   43.424046   43.424046   43.424046   43.424046   43.424046   43.424046   43.424046   43.424046   43.424046   43.424046   43.424046   43.424046   43.424046   43.424046   43.424046   43.424046   43.424046   43.424046   43.424046   43.424046   43.424046   43.424046   43.424046   43.424046   43.424046   43.424046   43.424046   43.424046   43.424046   43.424046   43.424046   43.424046   43.424046   43.424046   43.424046   43.424046   43.424046   43.424046   43.424046   43.424046   43.424046   43.424046   43.424046   43.424046   43.424046   43.424046   43.424046   43.424046   43.424046   43.424046   43.424046   43.424046   43.424046   43.424046   43.424046   43.424046   43.424046   43.424046   43.424046   43.424046   43.424046
53.162930   53.162930   53.162930   53.162930   53.162930   53.162930   53.162930   53.162930   53.162930   53.162930   53.162930   53.162926   53.162926   53.162918   53.162895   53.162830   53.162663   53.162186   53.160828   53.157372   53.149002   53.130028   53.089794   53.010159   52.863346   52.612137   52.214115   51.631691   50.846428   49.872822   48.764450   47.607010   46.498646   45.525043   44.739777   44.157345   43.759312   43.508099   43.361294   43.281651   43.241421   43.222466   43.214096   43.210625   43.209274   43.208778   43.208614   43.208557   43.208538   43.208534   43.208530   43.208530   43.208530   43.208530   43.208530   43.208530   43.208530   43.208530   43.208530   43.208530   43.208530   43.208530   43.208530   43.208530   43.208530   43.208530   43.208530   43.208530   43.208530   43.208530   43.208530   43.208530   43.208530   43.208530   43.208530   43.208530   43.208530   43.208530   43.208530   43.208530   43.208530   43.208530   43.208530   43.208530   43.208530   43.208530   43.208530   43.208530   43.208530   43.208530   43.208530   43.208530   43.208530   43.208530   43.208530   43.208530   43.208530   43.208530   43.208530   43.208530   43.208530   43.208530   43.208530   43.208530   43.208530   43.208530   43.208530   43.208530   43.208530   43.208530   43.208530   43.208530   43.208530   43.208530   43.208530   43.208530   43.208530   43.208530   43.208530   43.208530   43.208530   43.208530   43.208530   43.208530   43.208530   43.208530   43.208530   43.208530   43.208530   43.208530   43.208530   43.208530   43.208530   43.208530   43.208530   43.208530   43.208530   43.208530   43.208530   43.208530   43.208530   43.208530   43.208530   43.208530   43.208530   43.208530   43.208530   43.208530   43.208530   43.208530   43.208530   43.208530   43.208530
53.162930   53.162930   53.162930   53.162930   53.162930   53.162930   53.162930   53.162930   53.162930   53.162930   53.162930   53.162926   53.162926   53.162918   53.162895   53.162830   53.162663   53.162186   53.160828   53.157372   53.149002   53.130028   53.089794   53.010159   52.863346   52.612137   52.214115   51.631691   50.846428   49.872822   48.764450   47.607010   46.498646   45.525043   44.739777   44.157345   43.759312   43.508099   43.361294   43.281651   43.241421   43.222466   43.214096   43.210625   43.209274   43.208778   43.208614   43.208557   43.208538   43.208534   43.208530   43.208530   43.208530   43.208530   43.208530   43.208530   43.208530   43.208530   43.208530   43.208530   43.208530   43.208530   43.208530   43.208530   43.208530   43.208530   43.208530   43.208530   43.208530   43.208530   43.208530   43.208530   43.208530   43.208530   43.208530   43.208530   43.208530   43.208530   43.208530   43.208530   43.208530   43.208530   43.208530   43.208530   43.208530   43.208530   43.208530   43.208530   43.208530   43.208530   43.208530   43.208530   43.208530   43.208530   43.208530   43.208530   43.208530   43.208530   43.208530   43.208530   43.208530   43.208530   43.208530   43.208530   43.208530   43.208530   43.208530   43.208530   43.208530   43.208530   43.208530   43.208530   43.208530   43.208530   43.208530   43.208530   43.208530   43.208530   43.208530   43.208530   43.208530   43.208530   43.208530   43.208530   43.208530   43.208530   43.208530   43.208530   43.208530   43.208530   43.208530   43.208530   43.208530   43.208530   43.208530   43.208530   43.208530   43.208530   43.208530   43.208530   43.208530   43.208530   43.208530   43.208530   43.208530   43.208530   43.208530   43.208530   43.208530   43.208530   43.208530   43.208530   43.208530
